# .PCD v.6 - Point Cloud Data file format
FIELDS x y z
SIZE 4 4 4
TYPE F F F
COUNT 1 1 1
WIDTH 1774
HEIGHT 1
#VIEWPOINT 0 0 0 1 0 0 0
POINTS 1774
DATA ascii
-1.53876 -0.645969 11.4729
0.0397408 -0.655927 11.3594
-1.90278 -0.830374 13.6114
-1.22401 -0.628354 11.3599
0.243428 -0.451133 9.32602
0.250821 -0.451776 9.33199
-1.24431 -0.856584 14.3806
-1.27132 -0.853726 14.5671
0.146344 -0.4925 10.1431
-1.0363 -0.537401 11.1377
-1.88448 -0.469425 10.5135
-0.755349 -0.567906 11.6373
0.0976312 -0.403876 9.28293
-0.965446 -0.51616 11.1179
0.989287 -0.86894 15.6597
0.611097 -0.622497 12.6997
-1.36385 -0.482511 11.3239
-1.74926 -1.07073 20.8332
0.160545 -0.298752 8.05852
-1.36813 -0.472625 11.3403
-0.149941 -0.701434 14.8893
0.0830531 -0.55451 12.3889
-1.49151 -0.377414 9.903
0.176048 -0.443059 10.8319
-1.19852 -0.624687 14.7977
-1.24439 -0.660036 15.4791
0.0188579 -0.179939 7.42534
-1.18725 -0.344095 10.0663
0.255114 -0.272943 7.98099
-0.970394 -0.49347 14.7981
-1.12189 -1.15594 33.3029
-1.79574 -0.317925 10.4501
-0.756018 -0.457873 16.2552
0.288648 -0.275751 8.81043
-0.39097 -0.275771 9.66537
-0.786145 -0.254043 9.48641
0.0459574 -0.229862 7.81772
-0.49067 -0.213323 8.52501
-0.021062 -0.217708 7.58556
0.0607259 -0.218529 7.67478
0.0570384 -0.214392 7.67756
0.0410723 -0.209756 7.70628
0.0741841 -0.211333 7.61179
0.0501244 -0.2018 7.60408
-0.217416 -0.18416 7.51329
-0.253353 -0.188942 7.32998
-0.0788675 -0.180454 7.52292
-0.278398 -0.184955 7.37267
-0.228184 -0.180109 7.44203
-0.10095 -0.183812 7.40723
-0.00658292 -0.177933 7.45032
-0.0886921 -0.178755 7.34882
-0.169287 -0.176209 7.35243
-0.2828 -0.173828 7.34877
-1.77874 -1.14583 20.4647
0.212634 -0.384318 7.6979
0.349346 -0.566912 8.11681
0.103923 -0.422141 7.68065
-0.0716976 -0.453417 7.84922
0.237879 -0.440057 7.96112
0.0176514 -0.751802 9.54517
0.188433 -0.555481 8.88621
-1.05394 -0.570966 9.59919
0.0994254 -0.517519 9.19588
0.211714 -0.383754 8.1883
0.0811985 -0.507293 9.25035
0.201823 -0.37759 8.16417
-1.32539 -0.699958 11.1896
-1.84956 -0.588146 10.969
-0.0732296 -0.548393 10.6514
-1.13376 -0.542071 10.8731
-0.994468 -0.532922 11.0961
-0.573354 -0.441924 9.84403
0.111741 -0.461517 9.962
-1.57899 -0.86685 15.777
0.265714 -0.302849 7.92386
-0.0983377 -0.17283 7.37124
-0.792203 -0.616288 12.6621
-1.3809 -0.442228 10.4428
-1.10889 -0.618862 12.9734
-1.08901 -0.407062 9.97004
0.243178 -0.289406 7.99334
-0.854714 -0.473257 11.6108
0.166416 -0.307712 8.45313
0.261934 -0.30297 8.338
-1.56828 -0.4081 11.4144
0.160868 -0.278944 8.0767
-0.962272 -0.442721 12.2376
0.121888 -0.269637 8.00281
-1.06049 -0.388693 11.5529
-0.794572 -2.28857 63.2435
-0.841519 -0.454205 14.5367
-1.12396 -0.334162 11.2531
0.132332 -0.25749 8.03318
-1.18166 -0.250675 9.53183
0.0234405 -0.215079 7.73496
0.0405838 -0.206617 7.77495
-0.226413 -0.171859 7.36251
-0.20002 -0.183195 7.53634
-0.145062 -0.175605 7.68399
-0.156198 -0.181966 7.5424
-0.296771 -0.178514 7.54004
-0.128118 -0.180518 7.54777
-0.11977 -0.179707 7.35359
-0.0880421 -0.18064 7.34841
-0.100162 -0.178976 7.35296
-0.148649 -0.175773 7.35651
-0.139327 -0.175704 7.3586
-0.100677 -0.176185 7.35945
0.00820521 -0.427212 7.62609
-0.0626573 -0.426608 7.63758
0.268487 -0.358054 7.88771
0.265844 -0.311655 7.8856
0.281266 -0.289107 7.92228
0.219515 -0.23734 7.8351
-0.256782 -0.172725 7.36441
-1.76278 -1.23843 14.6599
-1.40705 -0.45468 10.5499
-0.425537 -0.190392 7.70364
-0.178751 -0.175954 7.35717
0.239616 -0.56808 8.29833
0.256707 -0.571611 8.31057
0.195634 -0.435619 7.86648
0.19001 -0.41184 7.81613
0.217737 -0.55221 8.56822
0.205495 -0.44181 8.09777
-1.00406 -0.665811 9.45767
-0.814682 -0.608956 9.19084
0.190717 -0.423163 8.06852
-0.0217146 -0.184179 7.53174
0.191476 -0.540415 8.85767
0.294766 -0.429409 8.18482
0.150512 -0.640545 9.56881
0.0963339 -0.496609 8.78504
-17.9417 -6.81314 53.5934
-0.0761637 -0.175903 7.36408
-4.90165 -2.22204 21.525
0.106941 -0.791419 10.9239
0.0346794 -0.599852 9.60032
-0.036383 -0.182317 7.55064
-0.962949 -0.519397 9.36598
0.0267903 -0.546616 9.47859
0.245937 -0.466497 8.86176
-1.32363 -0.735033 11.2887
-1.08077 -0.739208 11.2862
0.24653 -0.457875 8.86389
0.213249 -0.445528 8.83974
0.217868 -0.36804 8.17786
0.192269 -0.347484 8.00649
-1.59292 -1.10754 14.9353
-1.0265 -0.46372 9.28311
-1.40064 -0.617085 10.7092
0.143954 -0.343918 8.02511
0.196504 -0.336154 7.98907
0.188868 -0.446842 9.16368
0.203081 -0.319091 7.90922
-0.885625 -0.551188 10.7595
0.112759 -0.444151 9.37745
-0.221193 -0.18086 7.5295
-1.34033 -0.468075 10.0145
-1.02984 -0.734078 12.963
0.11171 -0.431792 9.36613
0.236612 -0.420826 9.21179
0.189747 -0.528926 10.5805
0.232683 -0.331317 8.20362
-1.55263 -0.57257 11.6181
0.134141 -0.485341 10.1612
0.269836 -0.417391 9.43608
0.131223 -0.307939 8.03373
0.234525 -0.323931 8.21871
-1.18927 -0.399782 9.7256
-1.81082 -0.444872 10.6375
-1.13487 -0.630791 13.1526
-1.405 -0.44621 10.6771
-1.542 -0.478556 11.2001
-0.453054 -3.45316 55.5587
-1.27937 -0.825276 16.6826
0.180071 -0.904071 17.9038
-0.321169 -0.181539 7.52963
-0.923734 -0.480923 11.5583
-1.24089 -0.418912 10.7629
0.229719 -0.300332 8.21222
-0.999568 -0.456063 11.5282
-0.580162 -0.459258 12.3952
0.256217 -0.272907 7.96187
0.256702 -0.272481 7.95166
0.270154 -0.270379 7.94923
-1.50976 -0.30568 9.98815
0.243282 -0.329608 9.76706
0.252646 -0.264035 7.97055
-0.865639 -0.333653 11.7342
-0.865011 -0.245111 9.40146
-0.951276 -0.230226 9.18842
-0.21775 -0.185602 7.5324
0.0554943 -0.211796 8.00282
0.0354063 -0.191954 7.64799
0.03706 -0.206703 7.82999
0.0213673 -0.209204 7.72779
0.0777453 -0.209215 7.70378
0.0250198 -0.204928 7.70529
0.0465573 -0.204751 7.67568
0.189001 -0.414617 7.8217
0.251028 -0.455711 7.99162
0.252984 -0.293275 7.95961
0.257173 -0.283934 7.97824
0.2448 -0.26167 7.95524
-0.382293 -0.200646 7.66917
-1.68432 -1.55576 45.6084
0.25483 -0.462311 8.02748
0.180568 -0.547184 8.39685
0.250479 -0.452649 8.00617
0.253453 -0.449852 8.01282
0.0624872 -0.470923 8.14171
0.135315 -0.992584 10.8181
0.127082 -0.495403 8.39489
0.239228 -0.441445 8.14086
-0.992537 -0.649094 9.40823
0.141869 -0.486824 8.43088
0.218093 -0.432212 8.13437
-1.15507 -0.66251 9.52725
0.191873 -0.559184 8.89973
0.235632 -0.538601 8.92797
0.166483 -0.459123 8.47557
-1.24174 -0.935336 12.0086
0.0163999 -0.508751 8.96488
-1.70757 -0.890436 11.8456
-1.07237 -0.570522 9.65182
0.124778 -0.520135 9.16134
-1.15523 -0.662385 10.4279
0.199069 -0.561513 9.49049
-0.958345 -0.514413 9.3538
0.209368 -0.375775 8.14542
-0.999374 -0.694736 10.8408
0.22161 -0.372943 8.18119
-0.948091 -0.470893 9.17698
-0.913252 -0.468909 9.15546
-0.0921364 -0.417605 8.61165
0.0911616 -0.471354 9.01475
0.0117122 -0.639716 10.5143
-1.24964 -0.556466 10.2838
-1.29279 -1.00445 14.3691
-1.35732 -0.740113 12.084
0.223999 -0.47967 9.36916
-0.849057 -0.584057 10.877
0.234508 -0.435437 9.13902
-1.66139 -0.535716 10.6338
-1.66034 -0.54383 10.7186
-0.884759 -0.559187 10.8129
-1.41295 -0.49383 10.3053
0.260169 -0.420513 9.18754
-1.84961 -0.514661 10.8283
-1.34736 -1.35062 20.8424
-0.659616 -0.506102 10.655
0.239393 -0.420883 9.38402
0.248414 -0.325715 8.20661
-0.926231 -0.521571 11.0276
-1.34047 -0.512512 11.2718
-2.51419 -0.94373 17.431
0.350019 -0.690691 13.4442
-1.94673 -0.991061 38.235
0.249295 -0.300865 8.11164
-1.44598 -0.406046 10.3942
-1.49371 -0.413983 10.5379
-1.86442 -0.860345 17.8871
0.0184768 -0.506075 11.5493
-0.709448 -0.466859 11.4878
-1.38281 -1.06527 22.2341
-1.21991 -0.979334 20.6681
-1.40793 -1.08368 24.8132
0.183728 -0.481984 11.4459
-1.24485 -0.487121 12.2458
0.203848 -0.449622 11.0372
-0.287988 -0.180238 7.52427
0.186151 -0.310168 8.54939
0.515454 -0.418979 10.6799
0.171107 -0.279788 8.1134
-1.32657 -0.3365 10.1955
-1.05751 -0.446043 12.6507
0.145755 -0.396542 10.9316
0.196725 -0.308279 8.83021
-1.58424 -0.324211 10.2005
-0.216424 -0.536284 14.8262
0.168867 -0.268222 8.06529
-0.994448 -0.554413 17.5388
-0.190376 -0.588965 18.9837
-0.123171 -0.183456 7.5336
-0.19796 -0.183232 7.53218
-1.13156 -0.24203 9.1782
-0.92558 -0.245947 9.17265
-0.833451 -0.242484 9.15359
0.0847976 -0.246894 8.39648
0.165921 -0.260655 10.1379
0.0751956 -0.243362 8.85418
-0.428719 -0.228912 8.74483
0.178134 -0.233357 7.99178
0.0808369 -0.229115 8.05174
-0.462988 -0.20087 8.27261
-0.261678 -0.178665 7.53402
-0.231603 -0.183794 7.53065
0.144585 -0.369192 8.03005
0.243411 -0.286268 7.96737
-0.0643982 -0.432084 7.84359
-0.265204 -0.181966 7.51516
-1.50067 -1.14687 14.694
0.243743 -0.530735 8.17022
-1.6923 -0.584975 11.8714
-1.30622 -1.09191 23.7249
0.235768 -0.471968 8.12806
0.133412 -0.42382 8.03368
0.224691 -0.439943 8.09896
-1.16023 -0.762165 9.77929
-1.89673 -1.19939 11.9692
-1.0671 -0.647208 9.35143
0.190776 -0.418103 8.07202
0.194503 -0.417671 8.06947
0.22903 -0.426313 8.10896
0.195521 -0.567146 8.96787
0.222666 -0.487393 8.54776
0.34714 -0.57326 9.08431
-0.0168029 -0.523513 8.866
-1.18814 -0.643906 9.78764
-1.5776 -0.69248 10.2169
0.737674 -1.22534 13.3942
0.226211 -0.388822 8.1309
-0.1413 -0.180701 7.53694
0.101473 -0.560823 9.30988
0.196908 -0.548692 9.24979
-1.68188 -0.872208 11.7503
-1.34193 -0.951083 12.3212
-1.59515 -0.947787 12.4224
-0.835699 -0.465258 8.98393
0.0907039 -0.516218 9.2122
-1.11697 -0.648302 10.4134
0.0338828 -0.511985 9.22614
0.24324 -0.488563 9.05392
-1.00535 -0.588279 10.2842
0.202796 -0.491178 9.45266
-1.04613 -0.658922 11.2851
-1.31185 -0.480868 9.87941
-1.01753 -0.742174 12.9363
0.14074 -0.856108 13.9122
0.206014 -0.663402 11.8025
-0.921427 -0.569654 11.1429
-1.07789 -0.753829 13.2351
-0.944589 -0.55211 11.0567
-1.13896 -0.588678 11.7766
-0.144749 -0.43818 16.5346
-0.981274 -0.633421 12.4335
0.262038 -0.714176 13.12
0.30842 -0.495903 10.5842
0.233706 -0.587488 11.9773
-1.14342 -0.52427 11.9778
-0.151861 -0.18147 7.53629
-1.2336 -0.418514 10.7913
-1.30713 -0.506371 12.3234
0.19217 -0.287987 8.12754
-1.32505 -0.366097 10.3136
0.196632 -0.281692 8.13972
-2.30786 -0.425478 12.6435
-1.24489 -0.498445 13.8062
0.296974 -0.329185 9.3472
-1.25012 -0.386473 11.7613
-0.912029 -0.564591 16.1385
0.167423 -0.262798 8.0763
0.0671745 -0.276497 9.60666
-0.0970308 -0.245891 8.66664
-0.774335 -0.236764 9.72818
-2.26756 -0.336393 34.7978
-0.091118 -0.235022 8.61445
-0.157636 -0.182177 7.53685
0.0127229 -0.213448 7.7092
-0.21895 -0.182724 7.55231
0.204433 -0.452146 8.08498
0.2655 -0.532649 8.50793
0.222997 -0.554037 8.9893
0.139527 -0.438752 8.439
0.175579 -0.448882 8.49401
0.277817 -0.493122 8.76448
-1.12489 -0.528208 9.37927
0.0934852 -0.491144 8.92819
0.265305 -0.448816 8.64071
0.0840235 -0.525481 9.25388
0.224477 -0.375441 8.18352
-1.00863 -0.502657 9.55891
-1.03963 -0.577835 10.3341
0.19272 -0.339448 8.19416
-1.28663 -0.575712 10.9667
-1.2531 -0.430798 9.89436
0.26724 -0.453783 9.94416
0.109072 -0.391758 9.48017
0.142236 -0.321397 8.44975
-1.12476 -0.37717 9.90157
0.13826 -0.300821 8.39468
-0.0245948 -0.312171 8.81535
0.239133 -0.363361 9.70961
-1.22237 -0.493092 13.6621
0.13118 -0.26699 8.01961
-0.951559 -0.339321 11.1388
0.135438 -0.291264 8.86458
0.13826 -0.286469 8.83339
-0.191527 -0.271267 8.85977
-0.994498 -0.25309 9.31618
-0.0934398 -0.219543 8.43981
0.215664 -0.467964 8.07925
0.200743 -0.414681 8.10545
0.21839 -0.412687 8.13974
0.0377336 -0.172386 7.75404
-0.0552225 -0.219044 9.17763
0.18169 -0.539293 8.40735
-0.0557519 -0.232137 9.62881
-1.04405 -0.71853 9.34809
0.140814 -0.411735 8.03455
0.04405 -0.830569 9.87606
0.223586 -0.49492 8.4282
0.0481273 -0.242948 11.8283
0.238492 -0.53345 8.68055
2.18429 -7.71171 42.2522
-0.919545 -0.227575 9.17549
0.159797 -0.549476 8.82878
-1.06061 -0.651982 9.50462
0.117945 -0.530474 8.79162
0.209308 -0.55484 8.92602
0.251239 -0.475677 8.56476
0.1973 -0.595152 9.27676
0.138997 -0.601896 9.40205
0.237992 -0.518744 8.93846
0.274773 -0.469191 8.64702
-0.107376 -0.457093 8.65153
0.233068 -0.818235 10.7751
0.24845 -0.55187 9.18199
-1.9722 -1.28299 13.8682
0.142721 -0.495118 8.89904
0.034949 -0.561267 9.3781
0.190866 -0.528905 9.15636
0.0255853 -0.578994 9.52512
0.247045 -0.437655 8.6115
-1.01333 -0.504809 9.24949
-1.46241 -0.85683 11.748
-0.936135 -0.47696 9.17303
-1.33683 -0.804406 11.5846
-0.091997 -0.433201 8.75536
0.0335646 -0.526715 9.41511
0.0489823 -0.518183 9.35167
0.0799022 -0.531195 9.44185
0.1915 -0.358549 8.1824
-1.43825 -0.723469 11.0778
-1.03305 -0.609748 10.2445
-1.16267 -0.632326 10.4863
0.258871 -0.455167 9.0195
-1.10163 -0.616624 10.8051
-0.957493 -0.453513 9.40406
0.140805 -0.316646 8.02127
-1.21913 -0.711463 11.9406
0.203133 -0.643044 11.0838
0.119677 -0.34701 8.3626
-0.911976 -0.634844 11.559
-0.904841 -0.557774 10.8563
0.0756227 -0.592993 11.0559
0.265614 -0.421802 9.22758
-1.16882 -0.548286 10.9873
-3.45577 -2.07002 28.2103
0.00912453 -0.385768 9.07125
-0.933715 -0.530161 11.0406
-1.46931 -1.38382 21.3896
-1.60965 -1.6675 24.8213
0.0202994 -0.550605 11.0977
0.168172 -0.418203 9.54408
-0.237669 -0.789222 18.0266
-1.36652 -0.5201 11.2308
0.244049 -0.43125 9.76263
-1.51166 -0.496466 11.0751
-1.52806 -0.972704 17.3341
-1.61827 -1.23299 20.7723
-1.49758 -0.44196 10.455
-1.09029 -0.614793 12.8901
0.206054 -0.540541 11.5513
-1.4374 -0.420736 10.3513
0.243288 -0.49175 10.9823
-1.55259 -0.427061 10.5843
-1.27613 -0.408466 10.2367
-0.836434 -0.406882 10.3218
0.148388 -0.306602 8.43619
0.164915 -0.303971 8.43283
-1.51844 -1.13843 24.3438
-1.32962 -0.489518 12.6162
0.175823 -0.244589 8.38917
-1.19101 -0.37687 10.5605
-1.26014 -0.491337 12.8862
0.158607 -0.315362 8.88084
-2.53531 -0.585034 16.031
-1.21919 -0.398867 11.4077
-1.19365 -0.421344 11.8991
-1.32973 -0.472542 13.0888
-1.28623 -0.532044 14.3983
-1.45054 -0.367487 10.989
-1.31721 -0.384311 11.5746
-1.17141 -0.29643 9.45135
-1.34615 -0.427465 13.8346
-1.00451 -0.471291 14.9992
0.124994 -0.284657 8.76632
-2.73289 -1.71944 57.4785
0.325363 -0.43432 13.6855
-0.942924 -0.376142 12.8897
-0.582822 -0.298049 10.1424
0.365881 -0.297651 9.75866
-0.271972 -0.254826 9.09835
0.102488 -0.246881 8.92863
-0.589107 -0.0840131 5.54087
-0.933758 -0.428955 6.23894
-1.05963 -0.425877 6.35657
-1.10593 -0.256291 6.41971
0.188512 -0.608782 5.89918
0.0948883 -0.102518 5.3607
-0.92089 -0.367014 6.2446
0.633144 -0.271275 6.03299
0.0899104 -0.136512 5.01213
0.373728 -0.571524 5.95859
0.20381 -0.371387 5.4317
0.730546 -0.327644 6.36422
0.532855 -0.254655 6.04377
0.527942 -0.241444 6.04336
-0.996109 -0.628291 17.9262
-1.09364 -0.375167 10.4721
1.07034 -0.408413 7.1011
0.164833 -0.585409 12.7925
0.500324 -0.257925 6.09164
-0.987006 -0.269065 8.51873
0.309825 -0.697886 7.2359
-0.597791 -0.402452 6.29606
-0.798356 -0.124118 6.47339
0.270139 -0.490895 7.61054
-1.15221 -0.407926 10.534
-1.69459 -0.547168 8.98641
-1.21806 -0.32561 7.52821
-0.848214 -0.22538 7.99754
-0.625954 -0.444253 6.34415
-1.56617 -0.430247 10.0613
0.105723 -0.777424 18.3554
-1.22676 -0.347886 7.38911
-0.473458 -0.238448 7.85083
-1.2645 -0.32501 7.51643
-1.59691 -0.46132 8.21583
-1.18075 -0.207648 7.97683
0.291912 -0.215673 6.89297
-1.10624 -0.21983 8.13277
-0.829854 -0.421424 7.29034
0.269548 -0.343477 7.88244
0.269276 -0.6521 7.59844
-1.02341 -0.386288 7.4986
0.186884 -0.394988 10.2942
0.257931 -0.437964 7.96065
-0.832354 -0.158228 7.46774
-0.850022 -0.158557 7.50772
0.259386 -0.738343 7.67332
0.279789 -0.719706 7.61359
-0.499276 -0.0703005 6.88255
0.227692 -0.462296 7.83263
0.288569 -0.475319 7.9761
0.11386 -0.56417 7.4856
-0.93726 -0.520226 8.14312
0.157961 -0.52821 7.51317
0.280437 -0.459717 7.62562
0.1271 -0.64239 13.0649
0.00300947 -0.604096 7.78724
-0.0207947 -0.47279 7.51128
-1.02177 -0.567645 9.5273
-1.11252 -1.02312 20.3047
-1.08935 -0.605773 11.2273
0.202731 -0.351388 8.20168
0.163557 -0.538092 8.39878
0.262203 -0.306646 8.33116
0.235042 -0.302821 8.31141
0.284576 -0.244662 8.49155
0.144141 -0.743016 9.70209
-0.249736 -0.819928 15.9779
-0.115229 -0.409943 10.2803
0.164411 -0.528878 8.46848
-1.04583 -0.703597 9.52137
-1.00742 -0.674643 9.4563
0.165215 -0.551651 8.87971
0.141825 -0.446022 8.41096
-0.848736 -0.632894 9.38529
0.22608 -0.542097 8.92928
-0.964135 -0.628981 9.46395
-1.26757 -0.737408 10.0836
-1.81129 -1.25234 12.7431
0.23803 -0.639328 9.49686
0.0231724 -0.61163 9.39142
0.100059 -0.606153 9.40693
0.256282 -0.550793 9.12552
0.253633 -0.446469 8.58017
0.263802 -0.561621 9.22875
0.0605762 -0.57998 9.36754
0.0606476 -0.723725 10.2447
-1.04083 -0.564252 9.51222
0.149088 -0.400743 8.4401
0.00597701 -0.576152 9.54497
0.0835862 -0.529403 9.27857
0.29891 -0.66042 10.0831
-0.0479406 -0.5816 9.6468
0.210174 -0.524709 9.3245
-0.0906659 -0.212626 8.35231
-1.17228 -0.678818 10.5791
-1.3192 -1.01913 12.9289
-0.980987 -0.478504 9.24679
-1.16497 -0.667841 10.6066
0.165568 -0.465981 9.09751
-1.23717 -0.950568 12.8036
-1.41601 -0.792937 11.7332
0.102651 -0.50022 9.41795
0.225212 -0.461398 9.11725
0.25458 -0.459124 9.09785
-1.02849 -0.784872 11.718
-0.0240633 -0.54655 9.86155
-1.39352 -0.967246 13.3546
-1.07216 -0.589098 10.3886
0.237276 -0.71229 11.4235
0.139034 -0.441878 9.16153
-1.67962 -0.868411 13.0181
-1.01384 -0.651702 11.1
-1.42813 -0.652237 11.2196
-1.07575 -0.570903 10.4751
0.111169 -0.47388 9.55974
-1.49619 -0.621857 11.1948
0.148396 -0.39498 8.91335
-0.785344 -0.49456 9.99232
0.257776 -0.463225 9.5876
-1.05336 -0.692726 12.0169
-1.70075 -1.85993 23.4965
0.250829 -0.413282 9.14995
-1.67001 -0.553503 10.7973
-1.47909 -0.593164 11.1743
-0.0591042 -0.563703 10.7295
-1.69187 -0.548147 10.8267
0.273143 -0.779276 13.2724
-1.54786 -0.488047 10.4118
0.0962756 -0.20713 8.26597
-1.73071 -0.58202 11.6991
0.0989982 -0.400107 9.34683
-0.559665 -0.53711 11.2429
-0.0612654 -0.545933 11.288
-0.951714 -0.511084 11.0783
0.101129 -0.38587 9.39775
-0.0896262 -0.229409 8.77456
-1.34957 -0.432515 10.3008
-1.03657 -0.706802 13.9914
-0.716276 -0.202006 10.1748
0.0910618 -0.382124 9.47747
0.225481 -0.358982 9.13214
-1.34778 -0.479558 11.184
-1.29788 -0.418756 10.3929
-1.47385 -0.454533 10.9605
-1.16162 -0.58848 12.9342
-1.09682 -0.663923 14.0632
0.135679 -0.329152 8.81703
0.267278 -0.315935 8.59702
-1.32929 -0.444177 11.0406
-1.29814 -0.533065 12.4825
-1.2121 -0.417194 10.7084
0.0993244 -0.522884 12.4754
0.21251 -0.443829 11.0587
-1.53888 -0.594138 14.3207
-1.19492 -0.565928 13.7355
0.230397 -0.327113 9.06208
-1.26692 -0.386728 10.5818
-1.18469 -0.542875 13.5792
0.267606 -0.362809 9.81798
-1.39958 -0.383643 10.698
-0.227944 -0.401452 10.8169
0.0866873 -0.412848 10.9827
-0.610135 -0.488609 12.9252
-1.26836 -0.346494 10.3374
-1.1749 -0.368896 11.0497
-0.921704 -0.584985 16.4152
0.141541 -0.276928 8.40403
-1.24865 -0.354116 10.9045
-1.36025 -0.45978 13.7604
-0.972582 -0.515828 15.1546
-1.18747 -0.311392 9.90165
-0.953847 -0.552242 17.4002
-0.804264 -0.501657 15.8016
-0.612982 -0.216969 8.61212
0.131777 -0.427747 13.7048
-1.31119 -0.347943 11.8934
-0.966549 -0.337504 12.2146
-0.152817 -0.25838 8.41547
-0.171479 -0.29106 10.125
-0.157728 -0.280669 9.61298
-0.919419 -0.280983 10.3329
-0.440636 -0.263379 9.10083
-1.09697 -0.275319 11.0724
-0.861056 -0.249033 9.2489
-0.86908 -0.243991 9.16926
0.649024 -0.305629 23.8508
0.397657 -0.315216 6.53941
0.391676 -0.283047 6.52556
0.400672 -0.188629 6.50548
0.160132 -0.157425 6.0701
0.240567 -0.426698 6.3248
0.179855 -0.273986 6.30299
0.193911 -0.273342 6.31698
0.193987 -0.266596 6.31722
-1.37335 -0.388103 8.177
0.187176 -0.226054 6.31879
-1.61003 0.498949 8.90972
0.176797 -0.318762 6.33326
0.187131 -0.258472 6.377
0.18674 -0.249707 6.35829
0.418501 -0.310169 7.3042
0.0721255 -0.163572 6.18355
0.17178 -0.606108 13.0567
0.728858 -0.223481 7.36284
-0.944102 -0.221556 7.42599
0.158609 -0.546806 7.54638
0.220809 -0.501123 7.58825
0.167246 -0.445325 7.52653
0.304014 -0.387701 7.73875
0.710795 -0.3336 7.4214
-1.1188 -0.240703 8.16219
-1.15362 -0.317024 7.98504
-1.25486 -0.521807 12.465
-1.20178 -0.510907 12.2469
-1.1448 -0.364683 10.5591
-0.0650377 -0.135361 6.33578
-0.0674272 -0.135296 6.33778
0.0456972 -0.150767 6.36527
0.242317 -0.724124 7.65363
-0.858601 -0.172755 7.5083
-0.0651395 -0.140029 6.33319
0.685757 -0.256715 7.46763
-0.136427 -0.137828 6.33391
0.0521495 -0.155021 6.64373
0.269419 -0.445976 7.96411
-0.857264 -0.152786 7.45947
0.314963 -0.364561 7.95629
0.431688 -0.293534 7.33403
0.331432 -0.681171 7.54076
-0.133792 -0.140277 6.32833
0.282845 -0.632822 7.58297
0.37436 -0.226818 7.30765
0.405074 -0.22388 7.36887
-0.618192 -0.0438205 7.16387
0.309719 -0.354765 7.28644
-0.488846 -0.163394 7.09759
0.318004 -0.549826 7.42187
-1.14487 -0.615288 8.17784
0.406313 -0.221299 7.2775
0.412494 -0.283236 7.31918
0.27522 -0.460048 7.63992
0.423845 -0.257512 7.26965
0.474046 -0.378764 7.43013
-0.989002 -0.200116 8.11226
0.142887 -0.688346 7.71466
0.465779 -0.581876 7.45828
0.176203 -0.38518 11.1204
0.452573 -0.312309 7.46947
0.205286 -0.41286 9.67106
0.460432 -0.311545 7.45843
0.46906 -0.359114 7.43135
0.431322 -0.259257 7.40956
-1.27389 -0.917656 12.0592
0.32171 -0.360304 7.29587
0.168947 -0.322995 8.09642
0.329447 -0.590675 7.50374
0.10138 -0.509651 8.70559
0.4133 -0.567928 7.46428
0.161526 -0.475599 9.06339
-0.364865 -0.155272 7.06513
-0.56519 -0.181435 7.32704
-0.292659 -0.147428 7.03925
-1.00497 -0.560099 8.16443
-0.953419 -0.518096 8.04708
0.128213 -0.789237 16.7434
0.334171 -0.312639 7.47404
-1.00135 -0.482151 9.25409
-1.29664 -0.679099 11.1698
0.106739 -0.513175 7.53182
-0.0660432 -0.498156 7.50298
0.0532366 -0.541599 7.64173
0.286824 -0.203866 7.60655
-0.148062 -0.487251 7.4988
-1.1944 -1.32647 27.5349
0.142043 -0.331322 7.4552
0.114209 -0.426206 7.49697
0.153101 -0.436987 7.50154
-0.064331 -0.317886 10.6865
-0.938453 -0.477244 9.19355
0.166319 -0.302101 8.07044
0.204519 -0.320128 8.16367
-0.181688 -0.819963 15.1559
-0.924853 -0.432348 14.7188
-0.834527 -0.472295 17.1355
0.254598 -0.448286 8.58024
0.260703 -0.44597 8.56871
-1.07801 -0.626733 9.49229
-0.960333 -0.496852 9.25184
0.220051 -0.458869 9.12653
0.0775172 -0.211539 8.23204
-0.910746 -0.254212 9.22866
0.162848 -0.452599 9.26046
0.395981 -0.536438 10.2512
0.159363 -0.310101 8.42003
0.0927069 -0.221905 8.37979
0.153628 -0.616421 9.23424
0.190423 -0.676733 9.54844
0.253732 -0.532856 8.93415
0.168105 -0.613726 9.33867
0.261491 -0.535983 8.99898
0.255371 -0.533494 9.00406
-0.20342 -0.913004 16.1267
-0.242689 -0.816671 15.6438
-2.43651 -1.1811 24.8245
-1.66513 -0.336891 10.7352
-1.03648 -0.639758 9.5825
0.0916877 -0.538281 9.23018
0.237449 -0.503037 9.05156
0.253551 -0.484584 8.94588
-0.00437689 -0.558748 9.44959
0.0511345 -0.515764 9.29357
0.0679399 -0.519771 9.31896
-0.978478 -0.285651 10.432
-1.27128 -0.916232 12.0367
-1.23546 -0.854358 11.7604
0.0493539 -0.516706 9.44466
0.258912 -0.454298 9.01663
-1.22825 -0.83417 11.6903
0.118051 -0.45355 9.06168
0.0668178 -0.275971 9.55866
-1.00736 -0.498484 9.51437
-1.49292 -0.750612 11.4333
-1.2232 -0.908781 12.6375
0.0115967 -0.745773 11.3976
0.219318 -0.575098 10.0985
-1.07325 -0.398261 16.1745
0.237029 -0.308596 9.52195
-1.2382 -0.934013 13.6059
-0.0111603 -0.61974 11.0873
-1.57655 -0.631086 11.3611
-1.32866 -0.611666 11.1722
-1.25342 -0.596288 11.0224
-1.1103 -0.587715 11.196
-1.12178 -0.602691 11.353
-0.506487 -0.223639 8.55765
-1.10286 -0.520344 10.6456
-0.978788 -0.566521 11.1562
0.124076 -0.390548 9.21506
0.245905 -0.566745 11.261
0.213085 -0.580735 11.6437
0.111326 -0.402373 9.50213
-1.25764 -0.524428 11.0643
-1.52047 -1.42335 22.1755
-1.09505 -0.425285 11.2847
-1.55843 -0.508077 11.1856
-0.92249 -0.713376 13.9746
-1.34228 -0.4992 11.1849
-1.07839 -0.618655 12.8619
-1.30704 -0.583564 12.7175
-1.35757 -0.479764 11.2912
-1.19101 -0.56814 12.6715
-1.03905 -0.575734 12.7909
-1.13664 -0.598976 13.3718
0.235298 -0.447343 10.9211
-1.08695 -0.310876 10.6185
-1.29908 -0.683203 15.0285
-0.0209251 -0.435192 10.8517
-1.09548 -0.452377 11.2866
-0.0327562 -0.410853 10.5636
0.222048 -0.433255 10.9593
0.251245 -0.353633 9.64836
-1.22045 -0.409618 10.8099
0.162362 -0.440539 11.4148
0.200847 -0.531032 8.62057
0.142937 -0.528929 8.6241
0.133545 -0.501745 8.81144
0.24822 -0.45709 8.81264
0.252475 -0.445513 8.79192
-0.867689 -0.255632 9.2772
-3.12483 -0.241414 25.9526
-1.7026 -1.66654 25.4097
0.0211593 -0.748008 9.4996
0.124036 -0.533963 8.81342
0.176337 -0.549661 8.91691
0.0166686 -0.645522 9.28594
0.049676 -0.697958 9.56004
0.24983 -0.550698 8.9968
-1.41601 -0.945978 21.2876
0.0380289 -0.617919 9.30505
0.0533919 -0.634875 9.38946
0.146963 -0.652405 9.49809
0.140059 -0.641135 9.48459
0.045904 -0.636886 9.49688
0.247603 -0.475666 8.83026
0.125799 -0.476913 8.84106
-0.870136 -0.268557 9.57987
0.132106 -0.452596 8.80841
0.240182 -0.504655 9.0653
-0.916355 -0.281274 10.3817
0.230974 -0.549941 9.31867
0.228259 -0.553515 9.35464
0.00455462 -0.56925 9.44109
0.129432 -0.442326 8.81763
-0.870429 -0.288908 10.5389
0.298023 -0.47134 9.02063
0.2198 -0.516759 9.27677
-0.046847 -0.581712 9.6353
0.115211 -0.477784 9.07714
0.204517 -0.504447 9.24698
0.114652 -0.520163 9.34922
0.245276 -0.425369 8.83933
0.17144 -0.472607 9.15909
0.0666838 -0.493625 9.29838
0.0151951 -0.499839 9.35489
0.0638044 -0.496185 9.35862
-0.0279502 -0.538404 9.64143
-1.15595 -0.69571 10.6402
0.0647237 -0.474551 9.33913
-1.38937 -0.656165 10.4934
-1.0651 -0.603802 10.4175
-1.42843 -0.9334 12.8742
0.171613 -0.672594 11.0966
0.10429 -0.408268 9.0603
0.218809 -0.689581 11.2956
0.237077 -0.43289 9.2879
-1.0824 -0.599006 10.5282
0.190326 -0.565096 10.5237
-0.291076 -0.219002 8.85028
-1.54639 -0.631081 11.2002
-1.47545 -0.635069 11.2441
0.0526608 -0.405645 9.31538
-1.16528 -0.589898 11.1558
0.224162 -0.532844 10.7307
-1.18943 -0.584243 11.178
0.13719 -0.340893 8.83018
-1.29648 -0.568803 11.2648
-1.22206 -0.685594 12.5821
-1.21281 -1.2176 18.8401
-1.65817 -1.7076 24.4255
0.119256 -0.394807 9.53396
0.138946 -0.332448 8.81852
-0.728177 -0.217391 10.3703
-1.27877 -0.457605 10.2891
-0.0820503 -0.65408 12.9186
-1.47603 -0.465443 10.525
-1.04922 -0.640186 13.0916
-0.0252692 -0.448403 10.5971
-1.32029 -0.621258 13.1444
-1.0673 -0.627838 13.2822
-1.3055 -0.417926 10.3188
-1.34613 -0.502372 11.6562
-1.16059 -0.586564 13.0286
-0.846421 -0.263556 9.4874
-1.28079 -0.404867 10.3068
-1.26516 -0.404341 10.3006
-0.421156 -0.245324 8.91095
-1.25256 -0.542127 12.8893
-1.26041 -0.428204 10.9759
-1.73956 -0.914519 20.0205
-0.27729 -0.642397 15.2033
0.072789 -0.685668 16.0883
-1.26256 -0.49459 12.4328
0.180818 -0.455052 11.963
-1.19408 -0.394805 10.6158
-1.22243 -0.405023 10.8206
-1.24388 -0.536722 13.5378
-1.30834 -0.575588 14.3266
-1.21375 -0.557264 13.9692
-1.02996 -0.552301 13.9079
0.21902 -0.39898 11.0195
0.285104 -0.40411 11.1403
-0.298575 -0.262482 9.60142
0.204415 -0.405944 11.9933
-1.1482 -0.422108 12.6295
-1.20744 -0.393126 12.0583
0.126341 -0.366584 11.6771
-1.2004 -0.405036 12.8206
-0.746087 -0.301434 9.97223
-0.853696 -0.313638 10.4753
-1.02591 -0.333174 11.2806
-0.241595 -0.35749 12.7791
-1.12789 -0.331462 12.0923
-0.985181 -0.294846 10.4105
-0.3553 -0.285948 10.2726
-0.843711 -0.403332 17.888
-0.197339 -0.931982 21.2727
-1.12925 -0.357551 10.7565
0.258913 -0.467205 8.84714
0.245662 -0.426547 8.83469
-1.09972 -0.31559 11.5623
0.195534 -0.55625 8.92416
-0.00866857 -0.665174 9.35215
0.23936 -0.542878 8.9295
0.228402 -0.684081 9.44786
0.121892 -0.475057 8.76279
0.165135 -0.657584 9.48824
0.143215 -0.651926 9.48063
0.124332 -0.470748 8.77013
-0.972684 -0.318612 10.5795
0.160756 -0.538184 9.11491
0.0649896 -0.59359 9.42248
0.130238 -0.433763 8.80221
0.0537483 -0.520167 9.23934
0.273585 -0.473211 9.02469
0.123845 -0.311109 10.7233
0.160217 -0.469321 9.10369
-1.22575 -0.752774 11.088
-1.23198 -0.854736 11.8023
-1.60455 -0.71858 11.1063
-1.04481 -0.613483 10.3914
-1.09212 -0.717534 11.1684
-1.42589 -0.72204 11.2476
0.115149 -0.422377 9.1367
-3.80576 -1.22196 15.7265
-1.04648 -0.581575 10.5716
-1.15381 -0.645957 11.0955
-0.057825 -0.41826 9.26642
0.241953 -0.478497 9.7699
0.177532 -0.65023 11.309
0.227054 -0.45504 9.68204
-1.46109 -0.633794 11.2498
-1.45153 -0.685142 11.707
0.214629 -0.61884 11.1768
-1.09248 -0.617477 11.2617
-0.882427 -0.573157 10.9251
0.0528119 -0.607168 11.2841
0.219588 -0.531813 10.5739
-0.932222 -0.572956 11.0661
-1.1273 -0.718335 12.5072
0.189819 -0.558502 10.9666
-1.27906 -0.563276 11.0308
-0.995934 -0.559058 10.9993
-0.929218 -0.564124 11.0537
-0.937527 -0.608854 11.5101
0.22805 -0.523138 10.6822
-1.09838 -0.736227 12.9278
0.135914 -0.335679 8.80816
0.203648 -0.623032 12.2329
0.143988 -0.359106 9.19246
-1.06732 -0.5677 11.7455
-1.67068 -0.977031 17.6344
-1.40904 -1.08668 19.1335
-1.68373 -1.43592 23.8501
-0.249598 -0.873173 16.3025
0.238519 -0.469908 10.8653
-0.515222 -0.807628 15.9235
-1.35297 -0.476443 11.1911
-1.32973 -0.494837 11.6023
-1.10242 -0.57596 12.8799
-1.10773 -0.542248 12.5276
-1.10979 -0.46969 11.4926
-1.18838 -0.524427 12.4096
0.231518 -0.412328 10.6133
-1.24807 -0.531912 12.7272
0.212616 -0.403935 10.5788
-1.34881 -0.380302 10.3706
-1.31584 -0.426318 11.4708
-1.20421 -0.380165 10.6436
-1.31914 -0.551647 15.2373
-1.01452 -0.858635 22.9219
-0.00768422 -0.200542 9.17544
-100.817 -124.532 3295.04
-1.37478 -1.18816 23.5784
-1.23878 -0.355203 10.6782
-0.871616 -0.286551 10.6152
-1.83105 -1.57755 31.0473
-1.0647 -0.292553 10.5261
0.235163 -0.339182 10.3818
0.0464631 -0.353034 10.962
-1.18524 -0.355886 11.1444
-1.18708 -0.359421 11.2602
-0.298797 -0.256757 9.56248
0.13225 -0.290866 9.17307
0.260563 -0.456859 8.95908
0.127382 -0.474674 8.82114
0.261558 -0.467742 8.99854
-1.34197 -0.689428 11.1035
0.125138 -0.350187 8.7666
0.109711 -0.431271 9.45388
-1.36281 -0.626735 11.2679
-1.79266 -0.954175 19.9777
0.0526614 -0.732684 9.50729
-0.365081 -0.270325 9.72035
0.228636 -0.656213 9.39398
-0.860603 -0.282201 10.4046
0.187229 -0.621157 9.39734
-1.99489 -1.5977 13.1627
0.109269 -0.645103 9.52635
0.0138943 -0.597401 9.39252
0.0145476 -0.509721 9.16218
0.118028 -0.539615 9.31039
0.0200474 -0.559193 9.41248
0.182454 -0.515909 9.21712
-0.344125 -0.283802 10.1579
0.126711 -0.506058 9.2518
0.237169 -0.475284 9.14207
0.110777 -0.460137 9.07657
0.0544666 -0.48294 9.25271
0.218191 -0.453833 9.09814
-0.0497508 -0.530656 9.568
-1.09177 -0.675022 10.5681
-0.863603 -0.248205 9.54291
-1.22334 -0.829151 11.5578
-1.42723 -0.773942 11.2612
-1.18484 -0.954405 12.4657
-1.39907 -0.794986 11.7297
-1.2365 -0.926239 12.6392
-0.265679 -0.300474 10.9521
0.118295 -0.456786 9.5164
-0.568623 -0.29749 10.7079
-1.56085 -0.646726 11.113
0.199051 -0.542851 10.3623
0.157234 -0.27496 9.10765
-1.38998 -0.635282 11.2079
-1.01834 -0.540919 10.417
0.108014 -0.425648 9.46409
-1.45641 -0.632751 11.2507
0.0775951 -0.570432 10.7432
-1.48579 -0.61944 11.2011
0.114974 -0.280857 9.44609
-1.07872 -0.619634 11.2111
-1.07382 -0.620957 11.2228
-0.0605521 -0.590984 10.9791
0.135633 -0.385326 9.16984
-1.50792 -0.61556 11.2345
-0.0629572 -0.612038 11.3775
-0.000725985 -0.635025 11.5953
-1.55024 -0.558811 11.1251
-1.39153 -0.566844 11.212
-1.38951 -0.558687 11.2067
0.0716227 -0.548827 11.2182
-1.0502 -0.483353 10.5432
-1.00004 -0.677335 12.7155
-1.00818 -0.702434 13.1336
-0.960535 -0.776059 14.3304
-0.909249 -0.617326 12.5309
0.235891 -0.44241 10.3685
-1.36307 -0.506451 11.2239
-1.35338 -0.50613 11.22
0.195444 -0.50298 11.2234
0.249513 -0.355049 9.31158
0.01617 -0.498209 11.2569
-1.4957 -0.471674 10.9522
-1.33695 -1.37064 25.7027
-1.23818 -0.498323 11.9834
-1.29953 -0.538913 12.6525
0.15478 -0.491415 11.919
-1.27801 -0.502098 12.2107
-1.17613 -0.394304 10.8203
-1.17522 -0.434333 11.6467
0.171495 -0.442894 11.8827
-1.09932 -0.490301 13.055
0.24987 -0.364327 10.3806
-1.24396 -0.429659 12.1627
-1.15311 -0.513813 14.209
-1.18166 -0.41493 12.0427
-1.25444 -0.365042 10.9334
-0.130144 -0.424175 12.6224
-0.759815 -0.529818 16.0149
-0.182261 -0.26829 8.3594
0.0422275 -0.398211 12.5106
-1.17492 -0.34548 10.9863
-0.940299 -0.259563 10.4627
-0.0756649 -0.267901 10.1515
-1.04631 -0.351233 11.8161
-0.317927 -0.315503 10.6729
-2.33562 -1.61849 69.7709
-1.02457 -0.335415 11.9403
-0.908509 -0.337894 12.0791
-0.194229 -0.325958 11.5445
0.0634209 -0.305479 10.5252
0.165891 -0.291764 9.83531
-0.87937 -0.300837 10.491
-0.454293 -0.312258 11.2071
-0.894643 -0.427004 17.8385
0.0368923 -0.713374 9.47439
0.240713 -0.701762 9.4794
0.240019 -0.52484 9.12383
0.164201 -0.466424 9.08227
0.24865 -0.46664 9.11567
0.225297 -0.458968 9.09015
0.255432 -0.461663 9.1255
0.148322 -0.535432 9.13582
-0.0559551 -0.264198 10.3957
0.235918 -0.697615 9.57043
0.239296 -0.66533 9.48657
0.229951 -0.625724 9.35576
0.111881 -0.637189 9.41296
0.110119 -0.531617 9.3016
-0.0589277 -0.564604 9.48151
0.127419 -0.48339 9.12677
-0.868886 -0.215598 10.2089
-0.816354 -0.270401 10.3188
-1.06447 -0.28247 10.4683
0.133395 -0.464878 9.10639
-0.0989105 -0.282029 10.0458
-0.885692 -0.288947 10.5742
-0.862727 -0.296397 10.698
-1.08809 -0.689681 10.2437
0.055542 -0.492182 9.31253
-1.08058 -0.294 10.4944
0.100706 -0.467539 9.30075
-0.957849 -0.32493 12.1124
0.289455 -2.06702 18.3451
0.198607 -0.505731 9.57166
-1.25571 -0.911922 11.9664
-1.12397 -0.8427 11.7661
-1.30391 -0.844972 11.8337
-1.08136 -0.634827 10.5418
-1.32016 -0.771378 11.4174
-1.22614 -0.945302 12.9064
0.224441 -0.56168 10.249
0.14428 -0.679289 11.118
-1.11748 -0.847211 12.3656
-1.39817 -0.67288 11.2107
-1.21584 -0.924693 13.2808
-1.41622 -0.61147 11.0672
-1.02293 -0.623456 11.1733
-1.07593 -0.618641 11.1937
0.250789 -0.575764 10.9619
-0.967787 -0.590829 11.1426
0.0683461 -0.598464 11.228
0.118519 -0.399948 9.4467
-1.13067 -0.581915 11.1926
0.10739 -0.394806 9.45731
-1.55915 -0.563492 11.1481
-1.04278 -0.701884 12.5405
-1.36528 -0.559878 11.1884
-1.1357 -0.556652 11.1592
-0.992978 -0.720556 12.8411
-1.02995 -1.12481 16.9826
0.0747142 -0.552231 11.2099
-1.11718 -0.534023 11.15
-0.981369 -0.522567 11.0257
-0.994118 -0.508092 11.0183
0.214072 -0.492563 10.8596
-1.03942 -0.51674 11.2046
-0.183987 -0.914499 16.0055
-1.0307 -0.492201 10.992
0.042573 -0.549466 11.7227
-1.04142 -0.689979 13.6045
0.0818181 -0.621997 12.7594
-1.47195 -0.485658 11.2755
-1.0074 -0.607249 12.9961
0.188337 -0.511344 11.7973
0.0716941 -0.482604 11.4934
0.106389 -0.489695 11.6012
0.215675 -0.423608 10.6067
-1.33011 -0.472319 11.4239
0.0543693 -0.712909 15.2248
-1.11355 -0.466737 11.4669
0.00717783 -0.46216 11.421
0.0996701 -0.474832 11.6295
-0.525468 -0.857074 18.2275
-1.33121 -0.657993 15.4288
-1.30056 -0.554543 13.772
-1.26043 -0.623129 15.0964
-0.631463 -0.996737 22.323
-1.38003 -0.441217 11.7506
-0.933489 -0.377261 10.4705
-1.22701 -0.487894 12.6997
-1.16811 -0.387604 10.9448
-1.23537 -0.411253 11.4726
-1.21314 -0.439594 12.1087
-1.2219 -0.44287 12.1818
-2.00105 -0.864995 21.6173
-1.24275 -0.369667 10.6766
-0.0645465 -0.23743 9.96847
-1.18661 -0.357058 10.8404
-1.23199 -0.447724 13.43
-1.18913 -0.36322 11.2283
0.130297 -0.294298 9.17348
-1.3089 -0.382946 12.1217
-0.0741443 -0.229216 9.3152
-0.801051 -0.848393 27.5724
-0.323777 -0.38992 12.77
-1.20395 -0.31624 10.7441
-0.953933 -0.357198 12.755
-1.10715 -0.31874 11.7053
-0.0334623 -0.403317 7.90988
-0.0630104 -0.376007 7.87333
0.199367 -0.355792 8.18953
0.203737 -0.350093 8.20397
0.199558 -0.333138 8.19388
0.125116 -0.265775 8.01158
0.220705 -0.577412 8.4904
0.200394 -0.529365 8.4064
-0.98871 -0.6013 9.13428
-1.08801 -0.630757 9.36358
0.261127 -0.299929 8.36703
-1.55676 -1.88237 35.7342
0.255534 -0.288885 8.38388
0.226667 -0.552887 8.9875
0.257508 -0.449548 8.57377
0.101297 -0.463317 8.71905
0.229867 -0.436967 9.0473
0.191889 -0.408853 9.70628
0.0974885 -0.229778 8.31246
-1.10682 -0.844568 9.60361
-1.03388 -0.678 9.51372
-1.0377 -0.674849 9.52309
0.13905 -0.455114 8.41856
-1.07522 -0.628202 9.52244
0.25997 -0.451093 8.59882
0.279441 -0.439633 8.71469
0.141515 -0.347387 8.431
0.277394 -0.421332 9.78185
0.0865783 -0.23099 8.45545
-0.490929 -0.27213 10.1122
0.128007 -0.54363 8.8242
-0.971412 -0.622058 9.50886
-1.00353 -0.588709 9.49493
-1.18719 -0.667974 10.6358
0.265744 -0.282587 8.93389
-1.17861 -0.62483 10.6634
-0.999648 -0.418047 9.50356
0.084194 -0.396397 9.36213
-1.10609 -0.312387 10.6874
-0.886349 -0.422846 15.2723
-0.520284 -0.319748 11.8275
-1.18599 -0.607803 11.1897
0.253737 -0.466057 9.02429
-0.866794 -0.288692 10.5315
-1.34601 -0.570417 15.7785
0.0907421 -0.246196 8.84257
0.0148217 -0.512357 9.14043
0.0912337 -0.39447 9.33696
-0.581615 -0.206534 9.41546
-1.31717 -0.457333 11.1456
-1.22513 -0.3254 10.9112
0.0526035 -0.493117 9.27389
-1.33798 -1.49965 19.6596
-1.02014 -0.733273 12.7761
-1.01291 -1.89399 34.6895
-1.40298 -0.632672 11.1951
-1.32166 -0.536387 12.585
-1.02551 -0.253305 11.0668
-1.20213 -1.07357 18.0018
0.21626 -0.572165 11.4041
0.281201 -0.557506 12.3738
-1.23398 -0.96163 12.8621
-1.46217 -0.536211 11.1435
-1.11483 -0.394369 12.0438
-0.987647 -0.613742 11.1326
-1.17032 -0.394914 12.0787
-1.04467 -0.285719 10.5033
-1.27927 -0.425799 10.907
-0.572905 -0.960111 17.3776
-1.05024 -0.621576 11.8276
0.0494079 -0.573105 11.8301
-1.01488 -0.701869 11.8767
-1.02887 -0.756592 11.8859
-0.105807 -0.751187 14.2128
-1.53164 -0.560945 11.2291
-1.03222 -0.623102 12.6893
-1.26113 -0.404235 11.5559
-1.26898 -0.92993 11.9129
0.0442069 -0.516594 11.9546
-1.0757 -0.514539 11.143
-1.25223 -0.905755 12.0413
-1.2497 -0.911763 12.0817
-1.18267 -0.6969 10.6737
-1.30737 -0.912695 12.1712
-0.831384 -0.508101 16.1274
0.0848935 -0.510878 9.29981
-0.0879681 -0.504699 11.7901
-0.674354 -0.901437 19.8714
-1.47607 -0.601818 11.3574
-1.14801 -0.894932 12.3615
0.422245 -0.553251 7.43102
0.12267 -0.0213849 7.15428
-0.146434 -0.158541 6.56431
0.157457 -0.587301 7.55345
0.319767 -0.554037 7.46016
0.369358 -0.559829 7.48073
0.0364278 -0.633397 7.70877
0.319734 -0.380945 7.29863
0.43188 -0.401338 7.57446
0.110992 -0.43154 7.73229
0.329283 -0.346874 7.3043
-0.498972 -0.182386 7.24409
0.380037 -0.332425 7.49375
0.379166 -0.328749 7.46449
-0.980364 -0.42787 8.14638
0.338435 -0.301824 7.32025
0.284457 -0.20687 7.27568
0.131295 -0.544315 7.47891
0.317153 -0.502594 7.44074
0.31448 -0.504339 7.45618
0.00151476 -0.466085 7.56117
0.3509 -0.36824 7.48717
-1.02571 -0.483265 9.17732
0.347265 -0.287478 7.45293
0.155643 -0.559564 12.5983
0.143617 -0.167444 10.177
0.0314625 -0.187877 7.64711
0.308978 -0.545085 7.52907
0.16491 -0.52423 7.4972
0.250827 -0.486319 7.76609
0.143618 -0.255687 9.18562
0.243346 -0.495258 8.09316
0.169471 -0.229205 7.75369
0.16552 -0.407049 7.65101
0.162584 -0.24629 8.36514
0.141898 -0.34482 7.48969
0.145336 -0.303963 7.44418
0.132124 -0.296979 7.42471
-2.58802 -0.61285 11.9112
0.0442127 -0.622813 14.282
0.0244637 -0.643522 14.3035
0.0377391 -0.368129 9.7276
0.278781 -0.28393 8.19205
0.317855 -0.245478 7.80656
-0.243977 -0.498348 7.49753
-0.228989 -0.498062 7.49749
-0.225503 -0.496617 7.49214
-0.0638659 -0.490848 7.50306
-0.106256 -0.483153 7.50278
0.320088 -0.318837 7.87715
0.326114 -0.496952 7.85933
0.287782 -0.432892 7.58461
0.29065 -0.415945 7.57449
0.186065 -0.379336 7.51965
0.218033 -0.483634 8.29399
0.118888 -0.311105 9.77617
-1.29968 -0.569658 14.2112
0.157169 -0.345489 8.05526
0.185399 -0.359169 7.46122
0.0213696 -0.511391 7.59037
-0.0481034 -0.484901 7.57471
0.284841 -0.266109 7.7826
-0.323327 -0.173512 8.75963
0.0969841 -0.620365 10.2545
0.0595778 -0.175198 7.40971
0.153631 -0.325502 8.0635
0.0225571 -0.208649 7.79623
0.187133 -0.754486 10.6446
-1.03757 -0.877811 18.599
-1.21611 -0.620197 14.5019
0.165638 -0.44353 7.85052
-1.6495 -0.528263 12.7803
-1.12747 -0.358011 10.7171
0.259598 -0.252972 7.96628
0.248877 -0.301976 8.11523
-1.14971 -0.932979 24.3805
0.213491 -0.328405 8.17209
0.13966 -0.329595 8.0593
0.27905 -0.301461 8.26193
-0.118143 -0.680598 13.664
0.165872 -0.397869 11.9032
0.156267 -0.353468 8.42186
-0.446756 -0.37797 13.284
-0.941964 -0.500995 15.9345
-0.890528 -0.615551 15.9401
-0.925149 -0.386213 13.2362
-1.10288 -0.602885 11.2986
-1.03775 -0.642586 12.5911
-1.19607 -0.662021 11.7023
0.0319845 -0.585228 9.44454
-0.0411123 -0.451877 9.07989
0.115102 -0.471648 9.17209
0.126 -0.386251 9.16309
-1.22162 -0.272712 10.589
0.0203084 -0.589216 9.55327
0.0892414 -0.530525 9.34756
0.223745 -0.486219 9.55657
-1.08868 -0.673273 10.6457
0.11287 -0.368574 9.32194
-0.100433 -0.399631 12.3088
-0.264848 -0.761069 15.2622
-2.39761 -3.20741 52.2598
0.139775 -0.147819 9.92504
0.0495551 -0.319902 10.5226
-0.304047 -0.257331 9.56672
-0.400211 -0.25048 10.5353
-0.0979901 -0.270259 10.0042
-0.272956 -0.290208 10.4859
-1.22618 -0.394697 12.3561
0.239723 -0.332143 10.1738
0.233845 -0.338118 10.114
0.257719 -0.351163 10.4386
-1.26706 -0.415669 11.562
-1.2567 -0.937774 12.1109
-1.26314 -1.02131 12.7483
0.223738 -0.559104 10.1036
-1.02154 -0.668811 10.7465
-1.28009 -0.999918 12.6836
-1.38896 -0.835341 11.812
-1.05485 -0.614855 10.5495
-0.188328 -0.302851 10.6995
-1.0728 -0.334055 12.1399
-1.42701 -0.706322 11.1937
-1.31918 -0.895248 12.4695
-1.37697 -0.76001 11.6382
-1.21143 -0.944686 12.8633
0.252699 -0.524639 10.1161
-1.21825 -0.79856 12.011
-1.33574 -0.697087 11.3635
-1.19751 -0.757796 11.7883
0.215539 -0.67219 11.2724
0.213603 -0.555293 10.4465
-1.3213 -1.04353 13.9558
-1.45469 -0.650289 11.2233
0.23699 -0.544303 10.5109
-0.119554 -0.465486 9.96084
-0.953169 -0.611179 11.1919
-1.08176 -0.727163 12.1374
-1.14545 -0.772391 12.6732
0.227378 -0.534162 10.7273
-1.13034 -0.584466 11.1866
-1.00673 -0.564076 11.0653
-1.20045 -0.798614 13.1882
0.209935 -0.597105 11.3983
-1.05143 -1.05016 24.7472
-1.33111 -0.587935 11.4729
-2.51971 -1.52556 20.5438
-1.21651 -0.332227 12.0056
0.1139 -0.678474 12.4888
0.262428 -0.464649 10.3669
-1.00119 -0.534879 11.0919
-0.0813615 -0.50357 10.8602
-1.06969 -0.691102 12.901
-0.0922495 -0.706273 13.2177
-1.10473 -0.577905 11.8646
0.0803368 -0.506679 11.0988
0.231526 -0.472613 10.719
-1.60766 -1.53671 23.4997
-0.0905134 -0.742622 14.0652
-0.911762 -0.700309 13.6826
0.202944 -0.486352 11.0901
0.211854 -0.466924 10.8515
0.376123 -0.0300929 10.2427
-1.18186 -0.64476 13.2772
-1.16773 -0.556763 12.2475
-1.7458 -1.50006 24.9601
0.22764 -0.423905 10.5769
0.210474 -0.503375 11.7982
0.0539297 -0.645936 14.0454
-0.699755 -0.560869 12.9025
0.00161356 -0.246975 9.40333
0.0139922 -0.727237 15.7898
-1.20549 -0.322165 10.7156
-1.22744 -0.536391 13.4356
-1.26054 -0.566611 14.0105
-0.971338 -0.625794 10.4056
0.110946 -0.445924 9.50957
0.243767 -0.338724 9.75856
-0.884121 -0.294091 10.4161
-0.276869 -0.305315 10.8206
0.219358 -0.560583 10.1122
-1.35712 -0.758052 11.3206
-1.25289 -0.843874 11.871
-1.28448 -1.0003 12.7947
-1.23624 -0.86995 12.076
-1.05289 -0.599902 10.5497
0.217775 -0.713431 11.3483
-1.27539 -0.939832 12.8016
0.244527 -0.51013 10.1027
-1.24081 -0.928198 12.9328
-1.06098 -0.710441 11.5113
-1.16611 -1.24052 23.1846
-0.998191 -0.579516 11.4237
-0.301541 -0.245561 9.49465
-0.849776 1.17132 14.3196
-0.965056 -0.702606 12.9109
-0.983417 -0.526352 11.1551
0.218142 -0.47501 10.6779
-1.09365 -0.517661 11.1227
0.261973 -0.528658 11.5544
-0.471054 -0.605369 12.774
-1.19056 -0.581844 12.5475
-1.07048 -0.463795 11.1526
0.235657 -0.431351 10.8648
-1.07746 -0.451321 11.1532
-0.8801 -0.280614 10.4583
-1.23073 -0.537744 13.1335
0.245363 -0.357508 10.1097
0.243415 -0.326284 10.4774
0.253478 -0.366343 10.5439
0.0290209 -0.535281 9.69244
0.0745852 -0.264948 9.5778
-0.111029 -0.717621 17.9709
-1.12438 -0.703131 14.491
-0.241734 -0.780194 10.5849
0.231143 -0.585083 10.0421
-1.30092 -0.920875 11.9127
0.227737 -0.585094 10.2949
-1.26545 -0.93018 12.0717
-0.43742 -0.728496 11.0638
-1.29242 -0.923461 12.0769
-1.3975 -0.861312 11.7961
0.207703 -0.750855 11.2393
0.119775 -0.683829 10.9454
-3.747 -2.31484 19.9597
0.222581 -0.549212 10.2901
-1.28246 -0.873794 12.1494
0.198123 -0.715357 11.3347
0.214976 -0.522338 10.2152
-1.32335 -0.774318 11.7048
-1.23653 -0.952789 12.7554
0.152571 -0.695366 11.2867
-1.22568 -0.805074 11.9755
-1.54449 -1.10641 13.8707
-1.23358 -0.938798 12.9037
-1.07123 -0.785842 12.0982
-1.10643 -0.682087 11.5045
-1.08649 -0.615479 11.2099
0.226529 -0.580919 11.0482
-1.38199 -0.626937 11.4252
0.207535 -0.650681 11.6189
0.206734 -0.619718 11.4309
-1.15675 -0.576465 11.1273
-1.25338 -0.906346 13.7301
-1.28811 -0.571183 11.1281
0.206392 -0.599704 11.472
-0.141534 -0.713864 14.8415
0.214436 -0.538008 11.0446
-1.19573 -0.68289 12.5286
-1.00045 -0.556711 11.4744
0.00676448 -0.497706 10.9582
0.0913648 -0.543564 11.4164
0.182704 -0.569297 11.8167
-0.0984178 -0.74397 13.8995
-1.11838 -0.557609 11.9159
0.252599 -0.412458 10.3665
-1.09663 -0.631601 13.1042
0.149512 -0.519556 11.7328
-1.71107 -1.55536 24.9805
-1.10743 -0.467185 11.2163
-1.30268 -0.551571 12.3218
-1.27309 -0.588297 12.9336
-1.34256 -0.483747 11.6068
-1.16422 -0.713725 14.8297
-0.295952 -0.792577 15.9425
0.223876 -0.408734 10.5713
-1.13195 -0.672972 14.4484
-1.09762 -0.553356 13.0061
-1.33358 -0.456746 11.6024
0.216273 -0.408371 10.8351
-1.15293 -0.539405 13.1088
-1.23351 -0.504083 12.6686
-1.23144 -0.576207 13.9346
-1.16783 -0.947886 20.4597
0.0225945 -0.702265 16.1605
0.102043 -0.736156 16.7563
-1.23649 -0.448494 11.8189
-1.21815 -0.610168 14.7822
-0.83033 -1.10616 23.8765
0.232446 -0.353422 10.1499
-1.30709 -0.527117 13.6874
-1.16677 -0.435258 11.9957
-1.1184 -0.434034 11.9704
-1.19953 -0.589633 15.2557
0.144799 -0.931887 22.499
-0.0808415 -0.253086 10.1285
-1.25171 -0.436336 12.1881
-1.47346 -0.620064 16.2734
0.286297 -0.341555 10.0969
-3.21955 -2.33938 57.0899
-1.21612 -0.375982 11.0873
-1.24445 -0.409993 11.9344
0.240777 -0.332245 10.1752
0.152057 -0.274412 9.86557
-0.0998688 -0.277616 10.1864
-0.88128 -0.275843 10.5306
0.255955 -0.314523 10.4335
0.00907119 -0.316973 11.1673
0.221834 -0.307233 10.4604
-0.588624 -0.323587 12.2349
-0.332455 -0.300718 10.588
-0.0883919 -0.3036 10.9201
-0.887586 -0.295518 10.4137
-0.387175 -0.29183 10.4722
-0.085247 -0.299275 12.3202
-0.0340446 -0.538089 9.58597
0.112439 -0.513468 9.49911
0.10764 -0.514345 9.50937
-1.07009 -0.636114 10.5178
0.0922263 -0.408285 9.45114
-1.06755 -0.284157 10.4774
-0.0318474 -0.523788 9.59866
-1.42774 -0.774353 11.2704
-1.35213 -0.672959 11.2241
-1.34415 -0.655899 11.1923
-1.14626 -0.472558 10.7255
-1.44694 -0.498165 11.2716
-1.18779 -0.384427 10.8528
-0.00273891 -0.248545 9.39651
-0.0303113 -0.23269 9.73506
0.382998 -0.641716 10.3434
-0.86634 -0.275675 10.4407
0.177865 -0.662351 11.1606
0.235338 -0.315224 10.1119
0.0402215 -0.59458 11.3492
-1.22764 -0.538047 15.1125
-1.2161 -0.378251 11.0941
-1.1022 -0.417726 11.8914
-1.23531 -0.552293 12.9057
-1.19123 -0.414138 11.0061
-1.15943 -0.483085 12.2239
-0.0619545 -0.87145 19.083
-1.43043 -1.38814 20.5972
-1.25298 -0.49652 13.4853
-1.29408 -0.458341 11.5424
-65.4108 34.5499 320.245
0.267023 -0.325457 10.3794
0.197529 -0.722131 10.6706
-1.22702 -0.528684 13.923
0.217542 -0.408024 10.6463
-0.521278 -0.327196 11.5465
-1.25025 -0.899082 11.9303
-1.39447 -0.86682 11.7992
0.206768 -0.782175 11.3529
-1.36537 -0.786769 11.4425
0.214895 -0.560889 10.2286
-1.30191 -0.823128 11.7237
-1.27007 -0.875373 12.0187
-1.32345 -0.993882 12.743
-1.26084 -0.977641 12.7061
-1.27714 -0.95208 12.7283
-1.25703 -0.952654 12.7319
-1.34671 -0.777802 11.7169
-1.25952 -0.839582 12.0971
0.241279 -0.365654 10.3642
-1.23622 -0.946643 12.8168
0.221014 -0.506694 10.0988
-1.26148 -0.820271 12.1325
0.0662583 -0.332278 10.4792
-1.20435 -0.787819 11.9753
-1.09382 -1.46845 35.2866
-1.31053 -0.680299 11.314
-1.26904 -0.693256 11.4002
0.103587 -0.335805 10.4521
0.197694 -0.657235 11.2489
0.178434 -0.667556 11.5069
-1.13656 -0.793483 12.714
0.213104 -0.626316 11.3968
0.107391 -0.357284 11.1646
-1.02012 -0.396271 13.6602
0.0820466 -0.57237 11.109
-1.3631 -0.92521 14.1746
-1.06739 -1.37038 29.683
0.232351 -0.445363 10.1648
-1.08162 -0.536802 11.1023
-1.33243 -0.443013 11.6427
-1.05747 -0.663332 12.8924
0.0195594 -0.723841 13.5645
0.224335 -0.467657 10.729
-0.969453 -0.590287 14.1173
-1.22793 -0.508109 12.6659
-1.0574 -0.479905 11.1237
-1.10387 -0.539845 11.8664
-1.49888 -1.41053 22.6554
-1.18565 -0.452751 11.6881
-1.17958 -0.740425 14.5268
-0.571433 -0.950894 17.216
-1.24818 -0.566927 12.5493
-1.26488 -1.10256 19.8397
0.0404729 -0.459601 11.3532
0.196652 -0.475298 11.5902
-1.24909 -0.537073 12.6673
-1.44705 -1.27177 24.7838
0.235224 -0.341001 10.1066
0.229043 -0.558253 10.2299
0.22126 -0.551418 10.2465
-1.33477 -0.649512 11.4462
-1.12206 -0.544436 11.1369
-1.29195 -0.425985 11.4463
-0.148457 -0.810822 17.9017
-1.27643 -0.951085 11.9803
-0.470114 -0.684985 10.8186
-0.523866 -0.327168 11.4946
-0.474488 -0.676856 10.8187
-0.488983 -0.674641 10.8271
-1.2657 -0.92604 11.9915
-1.29562 -0.871996 11.7748
