# .PCD v.6 - Point Cloud Data file format
FIELDS x y z
SIZE 4 4 4
TYPE F F F
COUNT 1 1 1
WIDTH 1780
HEIGHT 1
#VIEWPOINT 0 0 0 1 0 0 0
POINTS 1780
DATA ascii
-0.554653 -0.964128 27.0544
-1.88205 -1.01779 28.9694
-2.56486 -1.20009 35.4101
-1.21816 -0.950354 28.2866
-0.709678 -0.92549 26.8454
-0.914486 -0.915106 26.6836
-1.25483 -0.922054 28.5475
-1.06337 -0.901264 26.4282
-0.82882 -0.895626 26.2358
-0.748486 -0.894739 26.0921
-1.04161 -0.890208 25.3287
-1.00556 -0.889605 26.122
-1.03989 -0.879242 25.8471
-0.835856 -0.876073 26.0938
-0.985079 -0.87566 25.9063
-0.79296 -0.874048 25.7351
-1.06705 -0.8556 25.2182
-0.901727 -0.851894 25.5552
-0.859479 -0.860057 25.3281
-0.955773 -0.858769 25.2943
-0.919134 -0.858441 25.297
-0.92153 -0.849749 24.9491
-0.363936 -1.41215 26.3904
-0.51843 -1.3135 26.1423
-2.40791 0.562983 32.1662
-0.507361 -1.33186 26.3343
-0.727773 -1.29162 26.362
-0.646543 -1.29048 26.3703
-0.72729 -1.27186 26.3364
-1.28471 -1.28709 26.5804
-1.33648 -1.25977 26.4841
-0.768181 -1.21683 26.4375
-1.01559 -1.24309 26.614
-0.981002 -1.22195 26.4932
-2.38546 -2.28239 33.025
-1.7267 -1.89315 30.8163
-2.46826 -2.54075 35.967
-1.973 -1.33295 27.8022
-2.02702 -1.39612 28.3638
-3.1697 -2.61278 37.3668
-2.09258 -1.36014 28.2624
-0.667176 -1.1936 27.0488
-2.07781 -1.35807 28.4862
-2.53018 -2.10096 34.6205
5.91368 8.86695 104.529
-1.00521 -1.21524 27.3226
-0.961582 -1.16121 26.9471
-3.45017 -2.56944 39.7726
-0.657071 -1.08614 26.3472
-2.06854 -1.28337 28.2966
-0.789123 -1.1826 27.3168
-7.52549 -5.03516 65.02
-0.872145 -1.1669 27.2728
-2.07036 -1.28294 28.5118
-2.12539 -1.25299 28.3659
-2.15578 -1.24603 28.3727
-2.30002 -1.77718 33.9747
-2.37009 -1.68921 33.2334
-2.34513 -1.42692 30.9588
-1.32351 -1.58449 32.9858
-0.853724 -1.04782 26.5749
-2.10442 -1.18988 28.6282
-2.39846 -1.2333 29.7772
-2.0199 -1.11709 28.2322
-0.491477 -1.25347 30.3651
-2.71948 -1.41017 33.8555
-2.15811 -1.19779 32.2489
-0.847796 -0.980574 26.7606
-0.769311 -0.998752 27.5027
-0.82694 -0.920962 26.2488
-0.717572 -0.92596 26.5607
-0.722612 -0.913618 26.1686
-1.772 -0.913849 28.0881
-1.54612 -0.887548 27.5844
-0.829557 -0.891862 26.1481
-0.86622 -0.889417 26.0116
-0.797015 -0.890789 25.7276
-0.952745 -0.879977 26.11
-0.847819 -0.880688 25.8258
-1.11625 -0.876487 25.7836
-1.01516 -0.873598 25.7028
-1.12834 -0.868296 25.8394
-0.901266 -0.85991 26.208
-0.926719 -0.866069 25.6003
-0.977063 -0.863535 25.4669
-0.943145 -0.858391 25.5983
-0.912531 -0.855493 25.4283
-0.904258 -0.858656 25.2899
-1.07954 -0.813576 25.6775
-2.07531 -1.07145 28.6089
-0.514538 -1.33333 26.1584
-0.789313 -0.954568 25.2939
-0.654167 -1.32089 26.4129
-0.660668 -1.3037 26.3711
-0.728182 -1.28247 26.3409
-0.702885 -1.283 26.3423
-0.589129 -1.27948 26.4438
-0.891552 -0.853347 25.2023
-1.44009 -1.35878 27.1038
-1.01053 -1.25308 26.6229
-0.941839 -1.31088 27.0594
-0.706158 -1.26167 26.8442
-2.66044 -2.80798 36.317
-0.817401 -1.57451 28.8416
-0.904295 -1.20635 26.6176
-2.69469 -2.66106 35.841
-0.627804 -1.16576 26.3757
-2.21674 -1.50004 28.6906
-0.946967 -1.26877 27.1276
-0.503087 -1.1268 26.2653
-2.6037 -2.41858 35.4068
-0.999461 -1.43736 28.4795
-2.5319 -2.35092 35.078
-0.647026 -1.12234 26.3563
-0.589615 -1.12263 26.407
-2.11159 -1.36959 28.4813
-0.995931 -1.2167 27.2226
-0.872022 -1.23967 27.4417
-2.03072 -1.29959 28.0866
-2.07086 -1.2799 28.4219
-0.957021 -1.23569 28.0035
-1.99749 -1.31821 29.1271
-2.28121 -1.37569 30.0783
-2.29715 -1.47409 32.3762
-2.31797 -1.5768 33.7308
-1.99559 -1.13466 28.0618
-0.752384 -1.11487 27.7031
-2.23184 -1.29857 31.0767
-2.15444 -1.3095 31.2427
-2.16822 -1.18744 29.6394
-0.560785 -1.0077 26.5022
-2.13239 -1.25404 31.1935
-2.3514 -1.3561 34.0714
-2.09493 -1.09107 28.8589
-2.10759 -1.1704 30.5328
-2.04579 -1.21242 31.4134
-0.569221 -1.02597 27.3486
-0.666054 -1.01544 27.636
-1.90415 -1.06021 29.1312
-1.85374 -1.15287 32.0087
-1.74307 -1.04496 31.1509
-1.23106 -0.938933 27.0926
-0.605557 -0.926158 26.4092
-1.05828 -0.931915 27.2458
-0.955158 -0.930987 27.1458
-1.17999 -0.921353 27.2564
-0.727441 -0.900995 25.4731
-0.925747 -0.886569 26.1261
-1.01919 -0.882511 25.9838
-0.790529 -0.887121 25.3254
-0.895052 -0.862243 26.189
-0.987085 -0.871734 25.7294
-0.781752 -0.869224 25.6374
-1.06539 -0.869809 25.4654
-0.900798 -0.8521 25.8092
-0.886196 -0.855142 25.7406
-0.796662 -0.934115 25.3026
-0.895836 -1.28638 26.6025
-1.04814 -1.26243 26.6175
-1.0376 -1.25847 26.6157
-1.34243 -1.23239 26.5508
-0.68264 -1.26432 26.7939
-2.56386 0.721061 31.9291
-0.919568 -1.22366 26.6423
-0.509056 -2.25614 32.614
-0.534702 -1.18577 26.4458
-2.77664 -2.68781 35.8684
-0.672344 -1.23638 26.8459
-0.906433 -1.17365 26.5148
-0.914399 -0.860588 25.4976
-0.962794 -1.25118 27.0942
-2.65094 -2.49702 35.4906
-2.32646 -2.33308 34.6504
-0.965292 -1.2241 27.0047
-2.66169 -2.38492 35.3138
-2.68312 -2.36843 35.8283
-0.889618 -1.23971 27.3166
-2.09192 -1.36377 28.474
-2.81442 -2.46225 37.0928
-2.89998 -2.22545 35.4169
-2.0814 -1.35594 28.5299
-0.657975 -1.1514 26.8642
-2.90313 -2.14143 36.0137
-2.0324 -1.24853 28.3545
-1.97356 -1.33345 29.2036
-0.632623 -1.05164 26.3774
-1.49304 -1.41088 30.4052
-2.102 -1.20576 28.4464
-2.27069 -1.77075 35.5966
-0.848948 -1.05141 26.6278
-2.10645 -1.21752 29.4684
-1.95038 -1.10271 28.0777
-1.14985 -1.1685 29.1874
-0.806884 -0.854781 26.0269
-1.3176 -1.12987 28.699
-2.22104 -1.16219 29.501
-2.25711 -1.4831 36.3931
-2.16604 -1.21262 31.3089
-0.622976 -0.962387 26.3797
-0.74096 -0.990859 27.8559
-1.85826 -1.00104 28.7034
-1.07154 -0.935383 27.114
-1.07425 -0.932981 27.3016
-0.869645 -0.907169 26.4994
-0.929302 -0.861905 25.4102
-0.693083 -1.28868 26.3271
-0.592245 -1.30031 26.3748
-0.964398 -0.865277 25.7895
-0.952241 -0.862948 25.978
-0.888572 -0.862755 26.3386
-0.892449 -0.886921 26.118
-0.9589 -0.886044 26.134
-0.499061 -1.31385 26.4419
-1.39492 -1.33609 26.6575
-0.615948 -1.30703 26.5292
-0.649067 -1.26451 26.4333
-1.14876 -1.29346 26.6527
-0.570371 -1.23984 26.4532
-0.64133 -1.2439 26.5046
-0.929338 -1.31279 26.976
-0.925334 -1.31559 27.0756
-0.357375 -2.74343 34.4788
-0.496981 -1.19161 26.4674
-0.657118 -1.21944 26.6863
-0.58068 -1.1796 26.4571
-0.690204 -1.228 26.8445
-0.913384 -1.23137 26.9521
-0.652962 -1.13694 26.3664
-1.01323 -1.28872 27.5419
-0.875653 -1.22345 27.0878
-2.36829 -2.21486 34.0658
-0.60665 -1.12245 26.4423
-2.72645 -2.34711 35.4449
-2.3493 -2.41898 35.9327
-1.01795 -1.19246 27.0001
-0.656924 -1.10928 26.3731
-0.66035 -1.16754 26.848
-2.10718 -1.35931 28.4917
-2.09008 -1.3691 28.7404
-2.02186 -1.34082 28.7536
-0.631954 -1.0782 26.3749
-0.897975 -0.85696 25.5144
-1.00628 -0.890787 26.1107
-2.05139 -1.34754 29.6233
-0.68752 -1.15897 27.6318
-0.647315 -1.09053 26.8842
-2.64747 -1.62773 33.1147
-2.15118 -1.69384 33.7937
-0.583662 -1.07828 27.0699
-0.623013 -1.02496 26.39
-0.587549 -1.06168 26.9079
-0.603764 -1.08208 27.3729
-2.17644 -1.21696 29.8056
-2.10405 -1.17211 30.0519
-0.993757 -0.868337 25.4762
-0.650178 -1.05306 28.0379
-2.30674 -1.18243 31.5206
-0.581709 -1.0196 27.3948
-0.974053 -1.01267 27.702
-0.978646 -0.868759 25.6518
-0.718305 -1.00948 27.5541
-0.617835 -0.977404 27.0008
-0.598033 -0.970686 27.0517
-0.686193 -0.959156 26.9525
-1.03515 -0.952716 27.8072
-0.894437 -0.929827 27.0289
-0.935238 -0.922726 27.3681
-0.913091 -0.919451 26.6341
-0.939421 -0.869562 25.5653
-0.939555 -0.865626 25.481
-0.964792 -1.22199 27.0694
-1.02383 -1.24442 27.4283
-0.575469 -1.26986 26.4435
-1.33274 -1.26751 26.5321
-0.647722 -1.26371 26.4771
-1.17441 -1.29576 26.6472
-1.08928 -1.28016 26.6416
-0.960548 -0.874545 25.811
-1.00414 -1.2421 26.6315
-0.858422 -1.24883 26.6533
-0.486642 -1.19972 26.4785
-0.925812 -1.21578 26.6326
-0.575192 -1.18695 26.4621
-0.526658 -1.19048 26.4767
-0.549029 -1.16653 26.4534
-2.66035 -2.62286 34.8003
-2.75174 -2.70728 35.8935
-0.573375 -1.14527 26.4584
-0.654856 -1.20268 26.8746
-2.72584 -2.55393 35.7499
-0.965936 -0.883376 26.0933
-0.535818 -1.12866 26.4538
-1.6976 -1.80251 31.0828
-2.87723 -2.43671 35.699
-2.0505 -1.4014 28.576
-2.05006 -1.38864 28.5352
-0.954332 -0.887145 26.2365
-0.867346 -1.13279 26.627
-0.544853 -1.11282 26.458
-0.869462 -1.19092 27.2512
-2.49369 -2.33761 36.7717
-1.80334 -1.7199 31.9225
-2.10154 -1.36207 29.3868
-1.19018 -1.47607 30.7819
-0.649492 -1.08916 26.882
-0.537263 -1.10456 27.0308
-2.49068 -1.51371 31.7172
-0.695552 -1.12704 27.9546
-0.884772 -1.03427 26.7973
-0.699857 -1.12108 28.0365
-2.13609 -1.31406 31.2641
-0.893837 -1.02533 26.8188
-0.636184 -1.00041 26.3751
-0.515559 -1.01129 26.5765
-2.05011 -1.25912 31.3756
-0.949056 -0.837932 26.3344
-0.876177 -1.01084 27.0974
-0.638867 -1.01937 27.6806
-0.565495 -0.976239 26.5247
-0.691171 -1.01771 28.1345
-0.816958 -1.14235 33.1027
-0.889823 -0.977655 27.3683
-0.789826 -0.895372 26.0683
-0.976746 -0.918175 26.6007
-0.888501 -0.939398 26.3749
-0.874213 -0.930353 27.0116
-1.37576 -1.32055 26.6109
-1.32957 -1.30141 26.6474
-1.37629 -1.294 26.6543
-0.626928 -1.1031 28.7023
-0.801032 -0.976384 28.7988
-1.29431 -1.29546 26.6235
-0.888374 -1.33652 26.7784
-0.73705 -1.3396 26.7911
-0.717709 -1.32224 26.7595
-0.904981 -1.30601 26.9778
-0.576816 -1.1889 26.4465
-0.730804 -1.32437 27.1157
-0.947837 -1.28182 26.9999
-0.934051 -1.23303 26.7613
-0.953731 -1.26371 26.9457
-0.461368 -1.16524 26.4923
-0.543344 -1.14357 26.4774
-0.518368 -1.14961 26.5097
-0.568695 -1.1282 26.419
-0.46176 -1.13704 26.4908
-1.03045 -1.26751 27.3513
-0.53833 -1.12644 26.449
-0.933526 -1.19192 26.9037
-1.02254 -1.19884 27.0437
-3.03608 -2.59747 36.4374
-0.855647 -1.1371 26.6463
-0.860099 -1.13381 26.6627
-1.00143 -1.20717 27.225
-0.652268 -1.08943 26.3737
-0.690455 -1.28282 27.7888
-0.99977 -1.31674 28.1041
-2.51398 -2.32006 35.6737
-0.86159 -1.0696 26.5731
-0.541733 -1.0577 26.5188
-0.51211 -1.0281 26.357
-1.12094 -1.67458 34.0744
-2.42431 -1.53084 32.7682
-0.964265 -0.875792 25.8249
-4.85635 -9.40817 152.429
-0.780911 -1.15592 28.6821
-0.586738 -1.11392 28.1985
-0.999524 -1.16217 29.1714
-0.727016 -1.07114 27.7932
-0.754117 -1.07909 28.145
-0.557904 -1.03903 27.3424
-0.567704 -1.0246 27.4027
-0.560779 -1.01996 27.3945
-0.563846 -1.00176 27.0553
-0.951369 -1.06035 28.7832
-0.84208 -0.973997 26.6648
-0.626427 -0.960368 26.4012
-0.597817 -0.968418 27.0584
-0.750126 -0.974245 27.608
-1.02029 -0.947332 27.6022
-0.920358 -0.939157 27.0537
-0.942404 -0.93695 27.3242
-0.786089 -0.937209 27.0928
-0.624888 -0.932389 26.4145
-0.790203 -0.928907 26.7202
-1.06507 -0.914462 26.6644
-0.998344 -0.908341 26.5213
-1.12596 -0.895436 26.2826
-0.658755 -0.902658 26.1839
-0.97435 -0.890223 26.2978
-0.864551 -0.89016 26.2693
-0.786953 -0.888452 26.2803
-0.775748 -0.895586 26.0872
-1.0585 -0.889184 26.1395
-0.963894 -0.880755 26.049
-0.905212 -0.862586 26.1318
-1.15214 -1.75645 28.4758
-0.880703 -1.28567 26.6879
-0.593348 -1.18086 26.4384
-0.57313 -1.18344 26.4474
-0.503171 -1.18667 26.4528
-0.582173 -1.17469 26.4192
-0.707689 -1.26337 26.8827
-0.667436 -1.30387 27.136
-0.743604 -1.34515 27.4094
-0.469026 -2.33874 32.4301
-0.87075 -1.18233 26.6367
-0.531773 -1.14186 26.427
-0.533533 -1.14308 26.446
-0.995919 -1.29698 27.4884
-0.602994 -1.12398 26.4389
-2.65098 -2.7408 36.3612
-0.701564 -1.30103 27.5714
-2.37809 -2.58363 35.7611
-0.549046 -1.11415 26.4254
-2.7649 -2.52478 35.7205
-1.08341 -1.3055 27.781
-1.01653 -1.17582 26.9623
-0.689017 -1.23982 27.3473
-3.08647 -2.60937 37.0536
-2.68045 -2.80807 38.3213
-0.549088 -1.09649 26.4428
-0.664542 -1.08633 26.4403
-2.75292 -2.37659 36.6593
-0.682343 -1.11994 26.7717
-0.653531 -1.11172 26.7473
-0.644299 -1.07354 26.4425
-0.615314 -1.05621 26.2992
-0.53178 -1.06634 26.3629
-0.889856 -1.12012 26.8863
-0.664923 -1.10356 26.7302
-0.842543 -1.08279 26.6177
-0.682021 -1.13468 27.017
-0.696397 -1.12895 27.0298
-0.504425 -1.05792 26.6279
-3.10594 -1.61662 34.2242
-0.69142 -1.07218 27.0111
-0.952137 -0.878365 25.7789
-0.941593 -1.12167 28.8854
-0.931446 -0.880433 25.8721
-0.619161 -0.990067 26.3976
-0.508323 -1.00171 26.6207
-0.966959 -1.12958 29.5012
-0.644366 -0.976364 26.3447
-1.59147 -1.12811 30.6307
-2.16684 -1.14224 31.9402
-0.927018 -0.976333 27.7482
-0.577819 -0.971001 27.574
-0.335527 -0.964138 26.8451
-0.854937 -0.943768 26.5713
-0.77156 -0.951136 27.029
-0.709361 -0.939188 27.1627
-0.976737 -0.930083 27.1907
-0.939085 -0.920893 26.8534
-0.898276 -0.914835 26.618
-0.670426 -0.918796 26.4477
-0.966182 -0.906045 26.5965
-0.722257 -0.91266 26.4833
-0.660081 -0.915438 26.3865
-0.882909 -0.900773 26.562
-0.897555 -0.900443 26.4612
-0.969156 -0.899322 26.3643
-0.696661 -0.902451 26.445
-0.786467 -0.896341 26.2551
-0.749221 -0.89406 26.2361
-1.04793 -0.886455 25.9924
-0.891826 -0.882547 26.0132
-0.885008 -0.851557 25.9538
-0.960441 -0.881596 25.8782
-0.892342 -1.27807 26.7087
-0.749279 -1.26575 26.7706
-0.544107 -1.18033 26.4325
-0.716677 -1.26243 26.8117
-0.892153 -1.20239 26.5971
-0.741046 -1.3661 27.3577
-0.673732 -1.32064 27.1452
-0.659137 -1.12221 26.2924
-0.912093 -1.24533 26.9179
-0.707873 -1.2828 27.0869
-0.661313 -1.13246 26.3593
-0.473202 -1.14958 26.449
-1.50487 -1.45909 28.1933
-0.660722 -1.29179 27.2313
-0.704282 -1.29066 27.2503
-0.637602 -1.2762 27.2648
-2.59802 -2.67936 36.0899
-0.500059 -1.10107 26.419
-0.660328 -1.13937 26.6952
-0.846524 -1.12059 26.6196
-0.610211 -1.08131 26.3482
-0.524378 -1.08402 26.3658
-0.913168 -1.26755 27.7102
-0.846227 -1.10869 26.6218
-0.714149 -1.14541 26.9583
-0.523743 -1.06764 26.3761
-1.01193 -1.13721 26.9915
-0.649582 -1.11384 26.7582
-0.509794 -1.06429 26.3637
-0.718437 -0.98574 26.57
-2.43221 -2.14558 35.5592
-0.522114 -1.0498 26.3439
-2.42998 -2.09853 35.6795
-0.683879 -1.07541 26.6239
-0.480305 -1.13652 27.1118
-2.25806 -1.69816 32.5933
-0.68716 -1.08889 26.8132
-1.18954 -1.43784 30.5184
-1.20881 -1.48292 31.3263
-2.06962 -1.62893 33.5601
-0.71581 -1.20538 28.7199
-0.658198 -1.09444 27.5747
-0.506352 -1.02605 26.6181
-0.858995 -1.01584 26.6656
-0.71048 -1.08166 27.5941
-0.627098 -1.13722 28.3884
-2.06077 -1.23765 30.3635
-0.753443 -1.09524 27.9556
-0.803783 -0.807607 26.0266
-0.739459 -1.08198 28.0838
-2.45931 -2.98969 65.5421
-2.28067 -1.35254 37.1549
-0.917178 -0.987913 26.9565
-0.617862 -0.971758 26.4098
-1.11384 -0.978833 28.0677
-0.702569 -0.931414 26.9178
-0.632751 -0.928809 26.3601
-0.636937 -0.921238 26.3403
-0.732426 -0.901849 26.3806
-0.695812 -0.903182 26.1547
-0.881843 -0.886976 26.294
-0.821309 -0.883703 26.2366
-0.869391 -0.888616 26.074
-0.92763 -0.880632 26.1457
-0.91129 -0.86095 26.2038
-0.849142 -0.882299 25.953
-0.828482 -0.884935 25.9139
-0.850061 -0.884408 25.8868
-0.810653 -0.883695 25.8868
-0.971472 -0.878539 25.9186
-0.961697 -0.881035 25.8519
-0.878823 -0.88395 25.7613
-0.808782 -0.850542 25.9862
-0.839801 -0.871616 25.7731
-0.955892 -1.30476 27.3699
-0.957333 -0.879717 25.7843
-0.860504 -0.877041 25.7209
-0.83122 -0.869858 25.7377
-0.731187 -1.30322 26.8579
-0.73185 -1.30992 26.9162
-0.446729 -1.19964 26.4716
-0.679717 -1.25337 26.7404
-0.925658 -1.2443 26.8419
-0.669621 -1.2956 27.0631
-0.629343 -1.112 26.2506
-0.964938 -1.24473 26.9386
-0.705673 -1.24784 26.9367
-0.472757 -1.154 26.4583
-0.92607 -1.23185 26.9126
-0.640848 -1.18596 26.6475
-0.981969 -1.27581 27.1456
-0.670661 -1.29296 27.2081
-0.515241 -1.12543 26.3758
-0.046969 -1.00844 28.4378
-0.647684 -1.3506 27.5461
-0.607455 -1.11799 26.4122
-1.03394 -1.21761 27.024
-2.60486 -2.74875 35.4897
-0.561212 -1.12094 26.4405
-0.521632 -1.101 26.399
-3.13477 -3.41713 40.4191
-0.85003 -1.12135 26.6307
-0.510989 -1.09247 26.4282
-0.560455 -1.08988 26.4467
-0.527003 -1.07943 26.3729
-0.527055 -1.07768 26.3989
-0.670351 -1.22106 27.4159
-0.65322 -1.10588 26.6289
-2.71807 -2.23345 34.9656
-0.660137 -1.15561 27.0335
-0.481221 -1.09673 26.6131
-0.522464 -1.06062 26.3577
-0.950413 -1.44956 29.4631
-2.72165 -2.09399 34.9044
-0.879481 -1.16518 27.3316
-0.650496 -1.10321 26.8154
-0.670017 -1.05229 26.4272
-0.485809 -1.06262 26.5064
-0.487282 -1.05844 26.5078
-2.27048 -1.96997 35.0255
-0.534921 -1.03272 26.3251
-0.593529 -1.09951 26.9701
-2.36894 -2.05478 36.5868
-0.637395 -1.13463 27.3751
-0.431808 -1.08175 26.8206
-0.259455 -1.1232 27.1762
-2.12644 -1.75382 33.809
-0.624219 -1.07734 26.8509
-0.282493 -1.1044 27.0654
-2.30258 -1.67134 33.6815
-0.147743 -1.07009 27.0999
-0.630979 -1.07401 27.7826
-0.632732 -1.06102 27.8037
-0.636308 -1.02991 27.3726
-2.8305 -1.61572 43.5314
-0.668571 -0.967124 26.3929
-0.624484 -0.966189 26.9236
-0.564544 -0.956022 26.7826
-0.96184 -0.945051 27.5259
-0.590016 -0.939924 26.3754
-0.472315 -0.941282 26.8076
-0.363183 -0.934313 26.8789
-0.850794 -0.91748 26.5643
-0.591548 -0.919173 26.288
-0.460859 -0.9184 26.4136
-0.966003 -0.906247 26.6182
-0.943156 -0.896661 26.6438
-0.851286 -0.903244 26.4498
-0.655608 -0.906889 26.1918
-0.752203 -0.90011 26.225
-0.661826 -0.90792 26.0358
-0.707039 -0.90111 26.0933
-0.709366 -0.901881 26.0328
-0.946983 -0.887271 26.143
-0.856473 -0.886888 26.0524
-0.834656 -0.888974 26.027
-0.946284 -0.883503 26.074
-0.816411 -0.891332 25.9484
-0.968553 -0.884339 26.0091
-0.76326 -0.890091 25.8872
-0.851834 -0.882177 25.9267
-0.887819 -0.878756 25.9403
-0.891389 -0.874602 25.9366
-0.882512 -0.880327 25.8774
-0.768305 -0.883794 25.8392
-0.824995 -0.883654 25.7837
-0.374924 -1.18156 27.7617
-0.817358 -0.879431 25.7563
-0.822575 -0.877421 25.7446
-2.70535 -2.22238 35.6038
-2.19924 -1.32968 32.9333
-0.937622 -0.873742 25.9127
-0.819764 -0.87712 25.7671
-0.867707 -0.876299 25.7529
-0.943442 -0.878083 26.1923
-0.651488 -1.23289 26.5613
-0.656504 -1.29832 26.848
-0.89711 -1.22949 26.7668
-0.636217 -1.24867 26.8519
-0.498 -1.12787 26.2962
-0.665295 -1.34583 27.3329
-0.668293 -1.27611 27.034
-0.7029 -1.22219 26.822
-0.880499 -1.22868 26.9227
-0.403875 -1.18474 26.5946
-0.643445 -1.22697 26.908
-0.441921 -1.15223 26.49
-0.700027 -1.2608 27.104
-0.64507 -1.28652 27.2699
-0.682411 -1.267 27.2154
-0.697239 -1.23057 27.0298
-0.931868 -1.19401 26.9165
-0.571838 -1.2025 26.8947
-0.656012 -1.09997 26.3761
-0.504095 -1.11981 26.5104
-0.527512 -1.07712 26.2976
-0.811666 -0.882387 25.8125
-0.622649 -1.13001 26.7176
-2.37781 -2.39011 35.4409
-0.833538 -0.882556 25.9192
-0.503679 -1.09471 26.569
-0.644869 -1.07914 26.5164
-0.848484 -0.885569 25.9715
-0.617177 -1.03795 26.2196
-0.387499 -1.13116 26.8534
-0.417518 -1.07293 26.4279
-0.563727 -1.07776 26.5426
-0.600421 -1.10566 26.832
-0.764641 -1.10534 26.9072
-0.669767 -1.03487 26.2962
-0.671265 -1.09288 26.8397
-0.867681 -1.0803 26.8695
-0.420778 -1.08833 26.8062
-0.406 -1.06395 26.5744
-0.980936 -1.30888 29.126
-0.704644 -1.20995 28.0877
-0.562032 -1.07184 26.7771
-0.649788 -1.0862 27.0114
-0.387506 -1.04612 26.6744
-0.485696 -1.01031 26.3512
-1.24899 -1.54171 34.4782
-0.754796 -1.10015 28.0234
-0.798545 -0.895477 25.8977
-0.671934 -0.980167 26.2646
-0.476148 -0.993064 26.4964
-0.613298 -1.01126 27.2362
-0.644222 -0.960385 26.0833
-0.71362 -1.02852 28.107
-0.772842 -0.979544 27.4182
-0.640532 -0.954727 26.2576
-0.621408 -0.958536 26.7799
-0.852059 -0.943413 26.6143
-0.599196 -0.948068 26.4211
-0.907157 -0.917489 26.6614
-0.363169 -0.9249 26.6527
-0.940996 -0.910828 26.6158
-0.65027 -0.920812 26.3303
-0.474016 -0.920528 26.3525
-0.988236 -0.889172 26.7131
-0.723015 -0.906678 26.3592
-0.711793 -0.906571 26.1215
-0.700031 -0.900461 26.1935
-0.748692 -0.90037 26.0737
-0.763383 -0.898614 26.063
-0.755548 -0.898919 26.0601
-0.7182 -0.902346 25.9628
-0.769767 -0.898721 25.989
-0.703474 -0.90129 25.9235
-0.721192 -0.893045 25.9638
-0.970761 -0.897611 26.3179
-2.27797 -1.82636 35.6855
-1.02174 -0.920975 26.7456
-0.468381 -1.16719 26.3293
-0.621944 -1.18078 26.4359
-0.622496 -1.17683 26.4279
-0.576627 -1.18348 26.4409
-0.590701 -1.17865 26.4478
-0.537179 -1.17205 26.4142
-0.660417 -1.1216 26.3106
-0.67961 -1.25198 26.8896
-0.881856 -1.23171 26.9307
-0.660506 -1.12493 26.3763
-0.599632 -1.14087 26.4401
-0.938792 -1.21754 26.9068
-0.493234 -1.15353 26.4766
-0.933971 -1.21614 26.9114
-0.474598 -1.15128 26.4697
-0.773128 -1.31732 27.4115
-0.657782 -1.11012 26.3614
-0.81545 -1.24534 27.0864
-0.425837 -1.12494 26.4293
-0.416393 -1.12095 26.4252
-0.662158 -1.17435 26.8027
-0.684001 -1.22955 27.127
-0.360493 -1.14137 26.5524
-0.302454 -1.15566 26.6134
-0.749278 -1.27389 27.4328
-0.304859 -1.14447 26.5642
-0.416073 -1.10146 26.4214
-0.647024 -1.10301 26.5436
-0.644895 -1.11063 26.6321
-0.873946 -1.10076 26.6749
-0.639901 -1.12763 26.7733
-0.563824 -1.08524 26.4645
-0.524691 -1.08412 26.4435
-0.656668 -1.11041 26.7118
-0.56649 -1.07525 26.4359
-0.375361 -1.09857 26.5305
-0.879091 -1.12982 26.9638
-0.649715 -1.12264 26.8496
-0.776091 -0.893786 25.8385
-0.663426 -1.07883 26.583
-0.656407 -1.09743 26.7588
-0.667684 -1.1681 27.3436
-0.655036 -1.06221 26.5643
-0.653506 -1.03867 26.3642
-1.19786 -1.5236 31.0562
-0.713061 -1.19489 28.0049
-0.43186 -1.07736 26.7815
-0.821349 -0.887833 25.884
-0.779294 -0.894978 25.8558
-0.668805 -1.01314 26.4755
-0.640326 -1.11068 27.963
0.122675 -1.09799 27.3713
-0.655031 -1.05119 27.4511
-0.630816 -1.04081 27.3859
-0.832181 -0.886516 25.9238
-0.597969 -0.999276 26.783
-0.607096 -1.00193 27.0473
-0.724736 -0.985109 27.5127
-0.664898 -0.968846 26.8724
-0.628899 -0.948594 26.121
-0.560232 -0.938546 26.3482
-0.757095 -0.897063 25.986
-0.847648 -0.903404 26.4265
-0.610644 -0.917536 26.0672
-0.618458 -0.909708 26.0484
-0.715013 -0.903975 26.0359
-0.653283 -0.907302 25.9727
-0.351816 -0.837508 17.9831
-0.680571 -0.49255 17.5181
-0.578978 -0.64108 17.7075
-1.87874 -0.926536 21.3697
-1.7335 -0.819502 21.2972
-2.00508 -0.811052 22.2431
-1.8955 -0.764823 21.5695
-0.759013 -0.746976 17.9712
-0.758867 -0.743934 17.9691
-0.578528 -0.567731 17.749
-0.583226 -0.594423 17.75
-0.789927 -0.548853 18.7514
-1.48398 -0.824964 19.2507
-0.852216 -0.529119 18.5698
-1.91887 -0.696359 22.1566
-0.831491 -0.536965 18.5314
-1.93199 -0.716807 20.7213
-0.831643 -0.762828 22.6076
-0.829002 -0.562304 19.3455
-1.84547 -0.713481 20.7755
-2.3602 -1.61677 23.2022
-1.62006 -0.598859 20.6655
-3.1058 -1.95748 24.2838
-0.603008 -1.40663 23.4149
-0.640918 -1.61342 23.878
-2.22359 -1.70079 23.429
-1.9318 -0.932895 22.0466
-2.09281 -1.78269 23.4806
-2.00639 -1.44442 23.1507
-2.07405 -1.71463 23.8103
-1.98158 -1.09813 26.8553
-1.04262 -0.839257 25.9423
-1.44285 -1.32442 27.202
-1.01914 -2.1572 31.8212
-2.14897 -1.33706 31.9687
-0.386635 -0.949756 21.9051
-0.497974 -1.10246 21.731
-0.34028 -0.890704 21.8037
-0.781529 -1.22464 22.1706
-0.60934 -1.22075 22.1541
-0.480922 -0.736082 21.7289
-0.671558 -1.15691 22.0508
-0.819591 -1.15216 22.0911
-0.769197 -1.14835 22.1632
-0.469949 -0.747546 21.7072
-1.96997 -1.17605 23.5822
-0.458998 -0.959993 22.0063
-0.471404 -0.932027 21.9382
-2.04546 -1.274 23.8895
-0.681433 -0.184847 23.135
-0.668407 -0.752794 22.1674
-1.82072 -1.34542 24.3232
-2.21904 -1.88152 25.1389
-1.72424 -1.20204 23.8015
-0.860119 -1.22921 23.9375
-0.706372 -1.1628 23.2569
-2.3313 -1.73683 28.7775
-2.78436 -1.93462 35.8826
-1.74834 -1.18494 24.7817
-1.99022 -1.01327 27.6169
-1.75617 -1.20236 24.775
-1.70168 -1.22316 24.7104
-0.84609 -1.19271 23.8371
-1.8041 -1.16416 25.2256
-0.944499 -1.17623 28.7075
-2.59129 -1.35573 35.6229
-3.38659 -3.13444 63.1078
-2.60892 -1.93769 43.1634
-1.70045 -1.07685 21.5007
-1.60108 -0.927114 21.1794
-1.76323 -0.762251 21.7267
-1.94826 -0.759649 22.2029
-2.09482 -1.90455 23.6255
-2.41315 -1.82826 23.58
-2.17973 -1.61879 23.1691
-2.18682 -1.58301 23.0924
-1.89602 -0.749728 22.5834
-2.05281 -1.52964 22.9976
-2.22139 -1.97907 25.0814
-2.04797 -1.48327 23.0932
-1.13198 -1.33958 27.5557
-2.07158 -1.01209 24.5591
-2.18251 -1.74498 23.5349
-0.773169 -0.662001 21.8174
-0.546707 -1.13658 22.9617
-0.830792 -1.02303 22.1625
-1.74086 -1.40741 27.6512
-1.98024 -1.24345 23.1918
-0.487863 -1.11678 22.1696
-0.487296 -0.946518 21.7284
-0.57743 -1.56618 23.2255
-1.65325 -0.769077 23.6327
-0.482075 -1.03225 21.9833
-0.604979 -1.21392 22.131
-1.83817 -0.850595 24.2088
-0.497322 -0.774815 21.9676
-0.75296 -0.722874 22.0403
-0.49366 -1.05126 22.9264
-0.450044 -1.41931 23.1357
-0.624539 -0.746107 22.086
-2.08448 -1.42632 28.3405
-2.0114 -1.10967 29.7129
-1.72346 -1.17149 24.2694
-1.88852 -1.13442 24.7274
-1.82981 -1.34302 24.6837
-2.27133 -1.96793 36.5403
-1.18364 -1.3589 31.0088
-0.722399 -0.894547 25.8323
-0.397202 -1.21662 26.7207
-0.765189 -1.33503 27.5096
-0.54409 -1.14021 26.5483
-0.739422 -1.2145 27.8108
-0.693767 -1.1363 27.6303
-0.713799 -1.1444 27.9811
-0.65616 -1.05693 26.9223
-0.73051 -1.14919 28.1723
-0.716069 -1.15187 28.4725
-0.653858 -1.31162 26.9393
-0.653298 -1.12459 26.4288
-0.662995 -1.19916 26.8614
-0.695525 -1.22681 27.0625
-0.31787 -1.15096 26.469
-0.720882 -0.904771 26.0306
-0.707034 -0.904362 26.0699
-0.643232 -1.09097 26.6111
-0.645728 -1.0872 26.6457
-0.611856 -1.08683 26.8731
-0.664053 -1.07623 26.8604
-0.642675 -1.08212 27.8707
-0.300256 -1.01433 26.5788
-0.405075 -0.9641 26.6661
-0.653026 -0.90656 25.9249
-0.490201 -1.15306 26.3049
-0.54685 -1.17382 26.4199
-0.501198 -1.18186 26.4292
-0.459619 -1.19 26.4409
-0.645785 -0.907233 25.9582
-0.6136 -0.908062 25.9639
-0.655054 -1.13531 26.3701
-0.560146 -1.17146 26.4738
-0.431829 -0.968578 26.5791
-0.508874 -1.12535 26.2734
-0.643194 -1.17076 26.5524
-0.437262 -1.13012 26.297
-0.502399 -1.12067 26.3085
-0.702627 -0.902473 26.0156
-0.412477 -0.970317 26.6495
-0.597566 -0.910577 25.9911
-0.474945 -1.11713 26.306
-0.36118 -0.984207 26.643
-0.601186 -1.00856 26.8224
-0.483723 -1.12674 26.4336
-0.396419 -1.01947 26.6767
0.290596 -1.13606 27.7122
-0.506142 -1.0918 26.2697
-0.125836 -1.18134 26.5944
-0.504182 -1.10961 26.4385
-0.648139 -1.10685 26.517
-0.500584 -1.09831 26.3903
-0.47286 -0.930833 26.7067
-0.382166 -1.10239 26.4556
-0.625291 -1.06225 26.3704
-0.533439 -1.0843 26.4655
-0.531796 -1.07136 26.374
-0.283342 -1.09537 26.3947
-0.29212 -0.941445 26.4954
-0.578646 -0.909984 26.0555
-0.458153 -1.08089 26.4177
-0.656004 -1.05054 26.3616
-0.336497 -1.10475 26.5548
-0.491383 -0.929905 26.5292
-0.378572 -0.920509 26.2403
-0.138087 -1.12126 26.5974
-0.402256 -0.923054 26.2299
-0.46991 -1.06191 26.3994
-0.631258 -1.03205 26.3556
-0.1844 -0.93502 26.5917
-0.375751 -1.05724 26.4291
-0.43538 -0.923978 26.2754
-0.433417 -1.06688 26.587
-0.335095 -1.08013 26.6397
-0.410275 -0.921167 26.2915
-0.385184 -1.08476 26.8263
-0.58224 -1.0289 26.4713
-0.386299 -0.92595 26.241
-0.589722 -1.17847 26.4268
-0.663112 -1.33374 27.2522
-0.664294 -1.21401 26.8655
-0.650254 -1.1077 26.6312
-0.661675 -1.12507 26.8887
-0.679449 -0.90577 26.4433
-0.705861 -0.902074 26.1295
-0.702528 -0.900368 25.8634
-0.700342 -0.89892 25.8568
-0.638958 -1.12098 26.4719
-0.631791 -0.888788 25.9454
-0.690672 -0.894459 25.9227
-0.631837 -1.05069 26.3547
-0.693039 -0.896059 25.9175
-0.541206 -0.97208 26.3007
-0.636827 -0.952044 26.3435
-0.649748 -0.940835 26.2587
-0.53913 -0.945422 26.3078
-0.650701 -0.905679 25.9091
-0.66966 -0.91078 25.8932
-0.595763 -0.912163 26.2867
-0.505347 -1.1298 26.2262
-0.298494 -1.17375 26.2887
-0.155018 -1.02608 26.3699
-0.468566 -1.17285 26.4622
0.225043 -1.3533 26.7532
0.187386 -1.33545 26.7773
-0.548331 -1.03935 26.4783
-0.0262118 -1.19964 26.5462
-0.164979 -1.21053 26.4825
-0.636865 -1.10486 26.3549
-0.456681 -1.12866 26.3317
-0.619601 -0.888745 26.0486
-0.474459 -1.14343 26.4482
-0.557091 -0.906058 25.947
-0.498983 -1.10168 26.2936
-0.207705 -1.18502 26.5081
-0.225566 -1.16984 26.4424
-0.546916 -1.11867 26.4454
-0.111241 -1.195 26.5405
-0.0374895 -1.20169 26.5546
-0.413053 -1.12285 26.4236
-0.396231 -1.09748 26.3237
-0.666044 -0.901976 26.0989
-0.197451 -1.14093 26.4477
0.00716327 -1.1766 26.5258
-0.1838 -1.13667 26.4451
-0.303726 -1.11588 26.45
-0.32864 -1.1128 26.477
-0.542651 -0.916185 26.0095
-0.560341 -0.91148 26.0501
-0.387172 -1.07919 26.3357
-0.123871 -1.12853 26.4554
-0.492686 -1.06321 26.3494
-0.566799 -1.07676 26.5563
-0.110252 -1.1186 26.4412
-0.297834 -1.09306 26.4657
-0.292616 -1.09165 26.4641
-0.346218 -1.09563 26.5886
-0.411424 -1.05637 26.3211
-0.148739 -1.11082 26.5544
-0.362662 -1.08717 26.5845
-0.37083 -1.06158 26.3536
-0.0913773 -1.12052 26.6031
-0.384875 -1.07977 26.5764
-0.32114 -1.08224 26.5691
0.0847596 -1.13907 26.682
-0.350814 -1.08424 26.6443
-0.0636452 -1.10653 26.5441
-0.00801958 -1.10891 26.5273
-0.133254 -1.08766 26.4709
-0.0911848 -1.08985 26.4888
-0.381471 -1.07787 26.7574
-0.631795 -1.01752 26.3834
-0.326143 -1.06669 26.7504
-0.553678 -0.914297 26.0491
-0.220371 -1.05322 26.5619
-0.151577 -1.05404 26.5713
-0.362515 -1.04129 26.8241
-0.111646 -1.04115 26.414
-0.276848 -1.01905 26.4585
-0.293983 -1.00198 26.2119
-0.10424 -1.02443 26.4637
-0.631134 -0.905572 25.9064
-0.270107 -1.00133 26.8018
0.0324666 -1.01716 26.6403
-0.10275 -1.00423 26.4304
-0.40324 -0.976523 26.4396
-0.590799 -0.910938 26.0905
-0.122294 -0.987474 26.4331
-0.443752 -0.962063 26.4061
-0.457921 -0.91683 26.1019
-0.0963358 -0.975153 26.4712
-0.58432 -0.91431 26.0851
-0.513424 -0.912354 26.277
-0.514411 -0.927593 26.5432
-0.259471 -0.936358 26.4785
-0.253182 -0.936419 26.4846
-0.187618 -0.942439 26.4238
-0.115616 -0.947069 26.4028
-0.202534 -0.938993 26.4425
-0.178906 -0.94196 26.4035
-0.205343 -0.937233 26.3995
-0.455599 -0.927015 26.2734
-0.628631 -0.907233 25.8939
-0.462292 -0.923368 26.3088
-0.329518 -0.928417 26.2764
-0.210673 -0.931779 26.3086
-0.399652 -0.922326 26.3018
-0.393439 -0.923939 26.2801
-0.631324 -1.09264 26.3724
-0.563913 -1.10681 26.4537
-0.629763 -1.07032 26.3651
-0.507911 -0.978079 26.6919
-0.6065 -0.910098 26.2708
-0.604028 -0.906222 25.9095
-0.619788 -0.907664 25.8909
-0.492155 -1.15884 26.3179
-0.47034 -1.14181 26.2522
-0.361197 -1.15229 26.2412
0.0839718 -1.32887 26.6528
-0.285747 -1.21449 26.5095
-0.28529 -1.18795 26.4199
-0.428784 -1.12809 26.2906
-0.329891 -1.17167 26.4019
-0.457728 -1.11303 26.2772
-0.030917 -1.25128 26.5532
-0.318757 -1.14163 26.3037
-0.457007 -0.924207 26.2963
0.108139 -1.27588 26.6122
-0.478772 -1.10053 26.286
0.076021 -1.26516 26.6007
-0.133784 -1.20778 26.5186
0.421737 -1.03371 26.74
-0.104374 -1.18742 26.4406
-0.548418 -1.09881 26.4421
0.767451 -1.08216 27.0513
-0.39516 -1.10544 26.3252
-0.24661 -1.1518 26.4585
-0.523325 -1.08273 26.3414
-0.456261 -1.11027 26.4401
0.0352839 -1.2046 26.4906
-0.0274958 -1.17414 26.5151
-0.125227 -1.13854 26.4289
0.0453425 -1.18323 26.5595
-0.0175938 -1.15989 26.4912
0.0843652 -1.18237 26.5402
0.499252 -1.28384 26.8172
0.30756 -1.22704 26.6762
0.302683 -1.19592 26.6232
-0.321202 -1.08758 26.5712
-0.137047 -1.0753 26.4005
-0.22799 -1.06658 26.5432
0.0685173 -1.11222 26.6728
-0.35929 -1.04194 26.8323
-0.245274 -1.03159 26.4964
-0.376228 -1.00935 26.8089
0.0624764 -1.03952 26.6623
-0.0467537 -1.02685 26.5231
-0.414601 -0.988135 26.6504
0.214086 -1.04722 26.761
-0.324951 -1.03357 26.0959
-0.400082 -0.986143 26.5049
0.0207749 -0.990475 26.6267
-0.437599 -0.957456 26.4312
0.371424 -0.999203 26.7991
-0.309339 -0.955783 26.5384
0.0399619 -0.972971 26.6304
-0.116378 -0.963888 26.5171
-0.177612 -0.958372 26.4025
-0.46436 -0.940104 26.3005
-0.119441 -0.952586 26.4535
-0.0932909 -0.949877 26.3897
-0.524456 -0.927326 26.334
-0.409773 -0.93146 26.3484
-0.379818 -0.93419 26.3287
-0.234231 -0.936354 26.4304
-0.114007 -0.942878 26.4302
-0.571499 -0.924541 26.2404
-0.511248 -0.924731 26.2851
-0.347828 -0.92728 26.2694
-0.387341 -0.921912 26.3004
-0.279369 -0.927319 26.2729
-0.280937 -0.929116 26.2482
-0.0881005 -0.928944 26.3381
-0.172263 -0.92908 26.2524
-0.519507 -0.913714 26.2554
-0.531287 -0.916035 26.0759
-0.549082 -0.913611 26.0595
-0.43907 -0.922835 25.987
-0.564621 -0.912486 26.0109
-0.572266 -0.916109 25.9709
-0.553255 -0.917409 25.9545
-0.543135 -0.916752 25.9515
-0.608497 -0.912242 25.9383
-0.61971 -0.898868 25.9606
-0.628347 -0.892646 25.9896
-0.76768 -1.35726 27.5939
-0.731677 -1.13585 28.3898
-0.725277 -0.996382 27.5091
-0.65845 -1.25833 26.7268
-0.630835 -1.18347 26.4464
-0.665556 -1.33927 27.1626
-0.643998 -1.17512 26.6987
-0.640367 -1.1274 26.5434
-0.684557 -1.21867 27.1688
-0.654602 -1.12662 26.6441
-0.661792 -1.08983 26.6006
-0.695107 -1.20659 27.5244
-0.673235 -1.09105 26.9629
-0.686732 -1.13001 27.4429
-0.548911 -1.08021 26.8059
-0.533604 -1.03378 26.3269
-0.60878 -1.0782 26.9229
-0.606518 -1.05768 27.237
-0.64917 -0.894838 25.8896
-0.437523 -0.960747 26.5707
-0.697253 -0.905535 26.0858
-0.650745 -0.907884 26.0174
-0.653522 -1.12567 26.3664
-0.658038 -1.11213 26.3673
-0.647556 -0.905187 25.8911
-0.466669 -1.12427 26.3103
-0.652571 -0.906723 25.9255
-0.453582 -1.10366 26.4309
-0.49697 -1.0542 26.3557
-0.652156 -0.906499 25.9272
-0.558502 -1.0672 26.8297
-0.525715 -0.943998 26.3417
-0.47913 -0.950283 26.4184
-0.41867 -1.00173 26.6267
-0.641198 -0.907756 25.9998
-0.5516 -0.981563 26.4856
-0.638718 -0.958301 26.3289
-0.520994 -0.951625 26.3502
-0.595285 -0.947733 26.4504
-0.618961 -0.905859 25.9062
-0.617274 -0.911294 26.001
-0.536046 -0.988281 26.5513
-0.415715 -0.944681 26.6509
-0.561283 -1.15303 26.501
-0.442901 -1.1098 26.2589
-0.633138 -1.0187 26.3485
-0.553598 -1.07804 26.4778
-0.611988 -0.916016 26.3452
-0.619509 -0.920584 26.2994
-0.0585159 -0.966981 26.5804
-0.520706 -1.21622 26.5624
-0.615391 -0.91234 25.9988
-0.319768 -1.17977 26.4151
-0.430245 -1.12335 26.2748
-0.585018 -0.909621 25.9759
-0.528455 -1.11972 26.4414
-0.508958 -1.09793 26.5067
-0.496069 -1.07447 26.357
-0.547473 -0.916853 26.2812
-0.546097 -1.0434 26.4882
-0.175064 -0.973814 26.4975
-0.411979 -0.975626 26.3393
-0.401703 -0.933207 26.363
-0.176276 -1.10025 26.4371
-0.205787 -1.25556 26.5215
-0.226335 -1.07743 26.4325
-0.175907 -1.10525 26.4787
-0.48379 -1.18081 26.4496
-0.494545 -1.14344 26.3217
-0.235691 -1.00656 26.5301
-0.255397 -1.08843 26.3667
-0.503268 -0.922999 26.3088
-0.0750085 -1.11194 26.5541
-0.0717892 -1.11627 26.5704
-0.234769 -1.09907 26.5143
-0.174642 -1.11813 26.4405
-0.129542 -1.20975 26.498
-0.490774 -0.915037 26.0773
-0.493842 -1.13785 26.4325
-0.323346 -1.09303 26.5993
-0.281909 -1.17782 26.4949
-0.159301 -1.20175 26.5627
-0.543617 -0.916058 26.0666
-0.513524 -1.12026 26.4159
-0.301005 -1.15255 26.4367
-0.200669 -1.12214 26.4495
-0.538333 -0.913649 26.1977
-0.189342 -1.09042 26.4134
-0.375519 -1.128 26.4346
-0.380101 -0.92502 26.2224
-0.302745 -1.09401 26.7945
-0.369026 -1.11267 26.457
-0.504725 -0.915489 26.2899
-0.532004 -1.1476 26.3451
-0.429285 -1.02666 26.6002
-0.4867 -0.94766 26.3151
-0.522297 -0.923435 26.2959
-0.225589 -0.960055 26.4194
-0.0751294 -1.03309 26.6143
-0.346896 -1.14815 26.2035
-0.0761322 -1.2494 26.368
-0.332642 -1.15974 26.2632
-0.356718 -1.14652 26.248
-0.00707932 -1.26485 26.4017
0.0859572 -1.30538 26.5204
-0.225802 -1.15331 26.2549
0.0854928 -1.26322 26.4875
0.020905 -1.21082 26.2974
-0.0871443 -1.22081 26.4834
-0.490719 -1.09438 26.2816
-0.148329 -1.19081 26.4425
-0.0879178 -1.2011 26.4834
0.440679 -1.3332 26.675
-0.156828 -1.17462 26.476
0.222393 -1.33265 26.5886
-0.239383 -1.15562 26.4699
-0.263849 -1.15126 26.4947
0.0729665 -1.21549 26.4885
0.697719 -1.38963 26.8293
0.0449556 -1.20355 26.4599
-0.403685 -1.08711 26.3237
0.190137 -1.21586 26.5614
0.234162 -1.21721 26.6085
-0.335801 -1.09067 26.4951
-0.0318697 -1.13887 26.4896
0.0325043 -1.14307 26.4517
-0.346972 -1.08826 26.554
-0.385433 -1.06047 26.3392
0.272384 -1.17773 26.5582
0.238495 -1.16436 26.5224
0.185893 -1.14915 26.4676
-0.00968797 -1.11757 26.5082
-0.388987 -1.03882 26.3605
-0.247896 -1.06763 26.518
-0.306232 -1.05718 26.8313
-0.449747 -0.920642 25.9869
0.181515 -1.09641 26.5343
-0.0845395 -1.05026 26.2731
-0.0376413 -1.06201 26.5351
-0.397647 -1.01032 26.3533
0.0545094 -1.06727 26.6299
-0.093034 -1.03816 26.5531
-0.169201 -1.02015 26.5327
-0.351651 -0.99395 26.3
-0.331181 -0.991018 26.6311
-0.267694 -0.993359 26.2393
0.248801 -1.03775 26.6751
-0.0106236 -1.00868 26.5428
0.417746 -1.02884 26.7694
-0.297628 -0.971598 26.5967
0.0668362 -0.993369 26.4392
0.273925 -1.00056 26.6625
0.282947 -1.00152 26.5439
0.269048 -0.995208 26.6545
-0.326614 -0.95931 26.4407
-0.427363 -0.928053 25.9687
0.0708705 -0.97292 26.456
-0.419206 -0.94749 26.3304
0.0878487 -0.974936 26.3331
-0.333958 -0.922912 26.0908
-0.122657 -0.947517 26.4459
-0.09942 -0.949923 26.4218
-0.437008 -0.934354 26.3717
-0.240632 -0.941016 26.3968
-0.442213 -0.929137 26.3678
0.014378 -0.950753 26.3436
-0.0255062 -0.94576 26.3134
0.0311957 -0.945321 26.3026
-0.341976 -0.92458 26.092
-0.193807 -0.935615 26.2968
0.100617 -0.941205 26.3737
-0.415589 -0.921028 26.333
-0.158051 -0.938075 26.2039
-0.176005 -0.935477 26.2127
-0.276506 -0.925819 26.2466
-0.323594 -0.925041 26.2258
-0.321315 -0.926279 26.1855
-0.221689 -0.930542 26.0915
-0.276312 -0.92729 26.0939
-0.91435 -1.24778 26.9893
-0.937654 -1.19754 26.9006
-0.946683 -1.17841 26.8351
-0.865677 -1.11229 26.6143
-0.985286 -1.26981 27.7797
-0.821022 -0.887056 25.8547
-0.985306 -1.30954 28.7289
-1.23144 -1.38326 31.0079
-1.23616 -1.3717 31.3982
-0.956924 -0.946394 27.5106
-0.914289 -0.901786 26.6815
-0.861588 -1.17169 26.6933
-0.654071 -1.27554 27.1169
-0.787237 -0.892014 26.0127
-0.784184 -1.32892 27.5659
-0.781309 -1.27642 27.3163
-0.666333 -1.07983 26.4769
-0.853908 -1.06945 26.5589
-0.777332 -1.19453 28.2373
-0.475148 -1.1536 26.371
-0.727043 -0.989981 27.5336
-0.65314 -1.076 26.5499
-0.607361 -1.06139 26.4182
-0.721681 -1.25861 28.4034
-0.675753 -1.10676 27.3407
-0.480978 -0.934859 26.2981
-0.63956 -1.34432 27.0241
-0.548849 -1.13765 26.2442
-0.576071 -1.07644 27.2879
-0.599537 -1.10111 27.5803
-0.701986 -0.90073 25.8836
-0.704001 -0.898909 25.8927
-0.637938 -0.97516 26.9101
-0.64863 -1.16327 26.6286
-0.717412 -0.903023 25.945
-0.587271 -1.09306 27.1731
-0.681922 -1.22141 27.2105
-0.722389 -0.893904 25.9149
-0.607224 -1.01374 26.9566
-0.735838 -0.901728 26.0474
-0.749393 -0.901783 26.044
-0.580569 -0.954429 26.4786
-0.655841 -1.13834 26.3696
-0.666129 -1.11521 26.3632
-0.471113 -1.12318 26.3225
-0.655697 -1.04123 26.3633
-0.492242 -0.944852 26.3957
2.54063 -1.2644 32.4206
-0.651842 -0.90595 25.931
-0.637251 -1.11583 26.5349
-0.641571 -1.03811 26.4137
-0.700096 -0.901403 25.9875
-0.563242 -1.18011 26.4618
-0.630297 -0.990479 26.3198
-0.477977 -1.07073 26.5988
-0.458562 -1.18677 26.4345
-0.526487 -1.17222 26.4169
-0.352748 -1.09333 26.9056
-0.49674 -0.98878 26.2816
-0.477292 -0.931209 26.6271
-0.550678 -1.15222 26.4634
-0.377467 -0.97708 26.6329
-0.51442 -1.08061 26.4732
-0.553089 -0.913128 26.0587
-0.51212 -1.07466 26.4296
-0.53684 -1.0982 26.3627
-0.497102 -0.914012 26.2731
-0.456322 -1.12112 26.4342
-0.453355 -1.12151 26.4253
-0.489715 -1.14905 26.2994
-0.332116 -1.10279 27.0202
-0.496949 -1.12268 26.4308
0.35503 -1.1179 27.4661
-0.51448 -1.04735 26.3527
-0.368211 -1.00807 26.6597
-0.468038 -1.14299 26.4387
-0.47336 -1.1563 26.4771
-0.503422 -1.11171 26.2892
-0.487592 -1.10182 26.2432
-0.352323 -1.0202 26.6169
-0.356555 -1.08865 26.4963
-0.433017 -1.10649 26.4238
-0.286524 -1.12987 26.6166
-0.208101 -1.02536 26.584
-0.343078 -1.08694 26.4769
-0.101365 -1.12584 26.7864
-0.479786 -1.10804 26.2532
-0.329655 -1.1479 26.3206
-0.492429 -1.0932 26.2834
-0.320105 -1.0181 26.5516
-0.34038 -1.15128 26.2083
-0.403872 -1.11677 26.3216
-0.386503 -1.0607 26.3397
-0.396887 -1.05674 26.3423
0.0261035 -1.10703 26.6318
-0.313719 -1.0221 26.3804
-0.237576 -0.982324 26.5234
-0.157292 -0.977787 26.7173
0.115729 -0.991728 26.6113
-0.215806 -0.964059 26.48
-0.0824166 -0.955552 26.4767
-0.191568 -0.940368 26.3812
-0.36568 -0.928871 26.3162
-0.281745 -0.929206 26.0939
-0.228941 -1.19998 26.2967
-0.0441722 -1.26696 26.401
-0.338357 -1.15593 26.2606
-0.311062 -1.16609 26.2738
-0.0887844 -1.27376 26.4882
-0.255134 -0.930355 26.0946
0.0855446 -1.26464 26.31
0.234491 -1.14207 26.4402
-0.236271 -0.928409 26.1276
0.118134 -1.30939 26.5487
0.13898 -1.27424 26.3564
-0.244781 -0.918609 26.128
0.00749253 -1.20999 26.2488
-0.159666 -1.2157 26.4932
0.0034853 -1.2546 26.5092
-0.201121 -1.19197 26.4473
-0.310433 -0.926333 26.1015
-0.185964 -0.935258 26.0955
-0.00580865 -1.2328 26.5034
-0.0427732 -1.2163 26.5013
-0.0883871 -1.19098 26.4891
0.33787 -1.25522 26.4816
0.0714251 -1.2003 26.5032
0.00370537 -1.18319 26.5174
0.193223 -1.21068 26.5658
-0.000820292 -1.16074 26.4761
0.179502 -1.18472 26.5464
-0.227197 -0.932368 26.1335
-0.239729 -0.928552 26.1876
0.133844 -1.15377 26.4943
0.196449 -1.13671 26.3904
-0.286111 -0.926144 26.2487
-0.0567635 -1.08346 26.6028
0.190531 -1.09279 26.4926
-0.188504 -0.937621 26.1937
-0.305332 -0.927805 26.0966
0.313507 -1.08225 26.6235
0.263702 -1.05405 26.6042
0.549322 -1.06617 26.604
0.991524 -1.10157 26.8485
-0.00596895 -1.00765 26.5694
5.83814 -1.46136 30.3715
1.92473 -1.1524 27.5597
2.98623 -1.21118 28.743
-0.0777949 -0.944845 26.2986
0.296077 -1.01656 26.4299
-0.120049 -0.944585 26.329
0.0451759 -0.951876 26.37
0.00658792 -0.978235 26.5226
0.101336 -0.960282 26.3252
0.108254 -0.981536 26.5493
0.475457 -0.999294 26.6973
-0.0561981 -0.967565 26.4398
-0.133988 -0.960938 26.4557
-0.127 -0.961291 26.4564
-0.0639758 -0.965265 26.4413
0.243724 -0.9811 26.4628
-0.190231 -0.956954 26.3963
-0.25009 -1.03355 26.5111
-0.316026 -1.16429 26.2713
-0.0974587 -1.13104 26.6068
-0.21181 -1.00511 26.5646
-0.201859 -0.964655 26.5024
-0.35974 -0.923674 26.2429
-0.201657 -0.924835 26.1592
0.00644542 -1.27214 26.3623
-0.195273 -0.92055 26.0665
0.0915867 -1.29029 26.4088
0.023863 -1.25203 26.318
-0.0848327 -1.25431 26.4968
0.0556937 -1.24846 26.3254
0.11677 -1.26085 26.3222
0.0289541 -1.23268 26.3267
0.118261 -1.2532 26.3392
0.836863 -1.51063 26.7149
-0.0897499 -1.21863 26.4977
0.190461 -1.30095 26.5598
0.111401 -1.23751 26.3136
0.222954 -1.29108 26.4954
0.336362 -1.33039 26.5741
0.0913146 -1.22102 26.2997
-0.128237 -1.15843 26.4135
0.0304606 -1.19158 26.4388
0.187475 -1.23194 26.5498
0.195737 -1.21174 26.4159
0.295964 -1.23045 26.4523
0.169978 -1.20627 26.5354
0.120759 -1.1797 26.519
0.188801 -1.17793 26.4046
0.163486 -1.17795 26.5305
0.156911 -1.17232 26.5297
0.171705 -1.15997 26.3985
-0.132402 -0.934376 26.0901
0.319384 -1.18748 26.5678
0.137712 -1.13748 26.3664
0.202351 -1.15145 26.4792
0.367136 -1.1649 26.6039
-0.0879195 -1.08922 26.5609
0.356838 -1.15235 26.5921
0.291269 -1.10182 26.6021
0.282205 -1.10034 26.5913
-0.261328 -0.923786 26.116
-0.298791 -0.926234 26.2517
0.230473 -1.08749 26.4719
-0.0211367 -1.02505 26.557
-0.128602 -0.939597 26.1038
-0.0371526 -1.00854 26.5275
0.703771 -1.06473 26.6416
-0.0715248 -1.00023 26.579
-0.0768048 -0.992827 26.5421
-0.0532264 -0.990745 26.5389
-0.0518351 -0.97999 26.5312
0.0122106 -0.983609 26.5254
0.0773339 -0.986924 26.5355
0.253045 -0.995465 26.5803
-0.0322515 -0.978749 26.5499
0.0108163 -0.980048 26.5129
-0.075831 -0.941685 26.118
-0.105811 -0.968753 26.5171
0.064192 -0.984486 26.2609
-0.0902018 -0.962937 26.4588
0.654275 -0.990423 26.5225
0.678463 -0.981558 26.5536
0.136526 -0.961516 26.3123
-0.00734886 -0.952785 26.2596
0.169093 -0.956521 26.2563
0.0551558 -0.958848 26.1504
-0.0109644 -0.951067 26.1913
-0.105076 -0.935473 26.306
-0.466902 -1.10667 26.3057
-0.500846 -1.06484 26.3467
-0.530555 -1.08164 26.4889
-0.565474 -0.905825 25.9207
-0.465683 -1.14114 26.2467
-0.473445 -1.18395 26.4731
-0.508953 -1.09939 26.2692
-0.44685 -1.0985 26.2009
-0.0775923 -1.21965 26.5447
-0.508596 -1.07352 26.3719
-0.551926 -0.909817 25.9925
-0.55615 -0.910298 25.9935
-0.523682 -1.03284 26.3427
-0.374606 -1.05273 26.3942
-0.485895 -0.954881 26.3202
-0.390559 -0.929074 26.2893
-0.514651 -0.912172 26.2724
-0.349742 -1.1757 26.2872
-0.39303 -1.08927 26.3337
-0.418986 -0.919762 26.3486
-0.36766 -0.928372 26.3156
-0.3934 -0.927432 26.3324
-0.337017 -1.08532 26.4773
-0.370731 -0.935318 26.3862
-0.143849 -1.06008 26.4898
-0.541316 -0.915732 25.9651
-0.238914 -0.994594 26.5198
0.0970584 -0.996551 27.1266
-0.402728 -0.953535 26.3461
-0.442246 -0.922365 26.1173
-0.324558 -1.15889 26.2224
-0.448153 -0.921527 26.1342
-0.324296 -1.1351 26.2492
-0.2332 -0.939008 26.3673
-0.382209 -0.934528 26.3371
-0.3902 -1.04195 26.3601
-0.251077 -1.0082 26.5157
0.420365 -1.0772 26.7723
-0.347605 -1.15285 26.263
-0.335271 -1.16737 26.3393
-0.309639 -1.15525 26.2721
-0.15967 -1.21419 26.4866
-0.183184 -1.03403 26.5211
-0.22809 -1.16757 26.4693
-0.234843 -1.15703 26.479
-0.188826 -1.10266 26.5214
4.73596 -1.96687 30.5243
-0.22319 -0.943211 26.4201
2.6586 -1.19683 28.4687
-0.0806022 -1.02156 26.4482
-0.109032 -0.986407 26.4987
-0.429655 -1.0049 26.0028
-0.255418 -0.926586 26.2556
-0.187398 -1.18864 26.4419
-0.0874596 -0.937357 26.2784
-0.163288 -1.17471 26.4836
-0.168739 -1.16691 26.465
-0.0926035 -1.18446 26.4872
-0.0933368 -1.16972 26.4822
-0.132175 -0.961109 26.458
-0.181357 -1.08992 26.4159
-0.00545783 -0.958344 26.3959
-0.190943 -1.07161 26.2362
-0.0596077 -1.10716 26.3946
0.00200651 -1.07832 26.5432
0.267787 -1.08981 26.5947
0.187462 -1.1656 26.5122
-0.0220741 -1.09829 26.5337
-0.0703045 -0.956267 26.3639
-0.0403097 -1.04768 26.535
0.0162836 -0.985414 26.5103
-0.0410759 -0.957459 26.3731
0.260699 -1.14217 26.5312
-0.0242524 -1.23853 26.4783
-0.0164067 -1.23749 26.5073
0.0629386 -1.0866 26.5629
0.0202865 -1.13902 26.4393
-0.0462279 -1.20286 26.3676
-0.101879 -0.944685 26.3279
-0.0947564 -0.961422 26.4157
-0.0875666 -1.19595 26.4566
0.00537405 -0.984116 26.5325
-0.0926909 -1.14365 26.4778
-0.0331423 -1.09595 26.3296
0.135312 -0.993394 26.536
-0.0150094 -1.16635 26.508
0.0593043 -0.985647 26.5392
-0.0063635 -0.967529 26.4477
-0.0938131 -1.14737 26.4482
-0.0431686 -0.995357 26.5154
-0.557051 -1.06621 26.8318
-0.573021 -0.992513 27.1343
-0.405635 -0.971598 26.6641
-0.413248 -0.960995 26.6326
-0.650461 -1.11891 26.3757
-0.654238 -1.10792 26.3778
-0.657095 -1.09396 26.3709
-0.64802 -1.09485 26.503
-0.536955 -1.18748 26.4461
-0.609252 -0.907308 26.3176
-0.581366 -1.14155 26.4598
-0.637264 -1.0826 26.3716
-0.644055 -0.90054 26.1039
-0.56944 -1.08482 26.455
-0.631928 -1.04288 26.3707
-0.627765 -1.0413 26.3991
-0.571728 -1.04807 26.5446
-0.605293 -0.897326 25.9188
-0.639408 -0.907036 25.8949
-0.539512 -0.953144 26.5058
-0.634566 -0.909864 26.1734
-0.55793 -0.916135 26.0816
-0.552973 -0.912075 26.016
-0.585249 -0.911139 26.2622
-0.381805 -1.0922 26.3639
-0.430834 -0.988891 26.594
-0.611166 -0.910152 25.9256
-0.56296 -0.912221 26.0608
-0.643019 -0.8988 26.0216
-0.598327 -0.910827 25.9965
-0.544177 -0.919309 25.9466
-0.513224 -1.11857 26.4366
-0.50608 -1.10446 26.4399
-0.338057 -1.0872 26.4733
-0.460946 -0.923199 26.3681
-0.380109 -1.04632 26.386
-0.312938 -1.05433 26.82
-0.364743 -1.03723 26.6145
-0.333142 -0.951284 26.5081
0.177389 -0.992552 26.6684
-0.372537 -1.10231 26.4619
-0.314852 -1.08945 26.5901
-0.113235 -1.08977 26.3677
-0.30203 -1.09574 26.6795
-0.449378 -0.918965 26.2008
-0.355779 -1.15616 26.2506
-0.242763 -0.939594 26.3923
-0.378187 -0.924091 26.2576
-0.375216 -0.921067 26.3253
-0.307138 -0.924891 26.3371
-0.043404 -0.986897 26.4692
-0.264142 -1.06847 26.4271
-0.369463 -0.921706 26.2405
-0.17672 -1.04964 26.531
-0.264461 -1.15071 26.4637
-0.157566 -0.970211 26.5205
-0.206124 -1.115 26.4391
-0.279581 -0.930467 26.3177
-0.142628 -1.01485 26.5697
-0.117251 -1.12253 26.6318
-0.164199 -1.07874 26.5475
-0.220342 -0.94226 26.3616
-0.130483 -0.946481 26.3384
-0.0493232 -1.02879 26.5459
0.709576 -1.62014 27.3575
0.0679376 -0.991398 26.5655
-0.0861171 -1.21725 26.4984
-0.119945 -1.12762 26.4461
-0.160088 -0.945683 26.3945
-0.162443 -0.957231 26.4753
-0.0123569 -1.12514 26.6214
-0.158215 -0.948452 26.4604
-0.00652094 -1.16891 26.5129
-0.0339247 -1.16244 26.4953
-0.162862 -0.937349 26.3227
0.00435857 -1.0516 26.5568
-0.132165 -0.946308 26.3756
-0.0349975 -1.14176 26.4821
-0.0391056 -1.10306 26.4932
-0.0717306 -1.24096 26.419
0.033265 -1.2495 26.3338
-0.0125592 -1.21407 26.503
0.0153 -1.01013 26.5699
-0.0455574 -0.98347 26.5321
0.0824775 -1.26861 26.5246
0.0758402 -1.24705 26.5217
0.015597 -1.19169 26.4485
0.0537982 -1.16833 26.5042
1.09519 -1.12875 26.7628
0.064109 -1.02934 26.5616
0.079891 -1.02686 26.5743
0.052572 -0.986468 26.4959
-0.0690432 -0.936238 25.9966
-0.0950577 -0.932706 26.0698
-0.0513674 -0.965676 26.0544
0.0894588 -0.960609 26.4102
-0.109722 -0.928141 26.0057
-0.10039 -0.924727 26.089
0.219502 -1.29903 26.4725
0.125403 -0.982482 26.55
0.52866 -0.996305 26.7169
-0.0844717 -0.925489 26.1681
0.133979 -1.21961 26.355
-0.10405 -0.927006 25.9827
0.171185 -0.959365 26.2092
0.173297 -0.991714 26.5459
0.129775 -1.20457 26.5031
0.229874 -1.21858 26.496
