# .PCD v.6 - Point Cloud Data file format
FIELDS x y z
SIZE 4 4 4
TYPE F F F
COUNT 1 1 1
WIDTH 1862
HEIGHT 1
#VIEWPOINT 0 0 0 1 0 0 0
POINTS 1862
DATA ascii
4.30959 -0.918431 16.0103
4.00684 -0.926193 15.8018
3.82763 -0.929624 15.7146
4.20162 -0.927979 15.8068
3.91104 -0.916645 15.8806
3.91303 -0.913883 15.8971
3.98724 -0.920421 15.8062
3.83457 -0.923231 15.7208
3.98217 -0.918497 15.808
4.17574 -0.925664 15.7178
4.31589 -0.924931 15.7339
1.60066 0.0362248 12.0442
3.81392 -0.915343 15.6388
3.82356 -0.908711 15.7225
3.99791 -0.907442 15.8021
4.29224 -0.919743 15.7005
4.08787 -0.926561 15.4499
4.32402 -0.915654 15.7388
4.3437 -0.913651 15.7635
4.17945 -0.884787 16.2884
4.28023 -0.907783 15.8172
4.02741 -0.919878 15.3349
4.00795 -0.893396 15.8692
4.30634 -0.90107 15.9133
3.9027 -0.888869 15.8465
4.34668 -0.904615 15.818
-4.73044 -1.34116 -7.1215
3.99052 -0.888753 15.8967
3.71025 -0.902293 15.0809
4.34623 -0.902976 15.7818
3.58451 -0.892056 15.1417
3.96255 -0.878828 16.0969
4.23756 -0.896219 15.8191
3.72419 -0.897522 15.0143
4.20611 -0.903637 15.4103
4.10152 -0.89762 15.4811
4.27793 -0.899026 15.6418
3.89015 -0.877784 15.867
3.88391 -0.874993 15.91
4.3449 -0.895657 15.7902
4.27433 -0.892037 15.8206
3.90004 -0.873955 15.9199
3.72244 -0.878706 15.0283
4.01509 -0.876604 15.8845
4.31888 -0.890127 15.7996
4.2266 -0.88965 15.4678
4.09718 -0.884485 15.3959
3.88175 -0.867132 15.9045
4.22052 -0.855511 16.2017
4.20322 -0.882094 15.7494
3.99546 -0.871114 15.8913
3.52426 -0.852078 14.7155
4.06902 -0.872447 16.0539
3.8635 -0.864359 14.7533
4.00112 -0.86851 15.8435
3.94611 -0.86437 14.8387
3.75727 -0.840266 15.0469
4.21613 -0.873803 16.1193
3.91293 -0.85117 15.5862
4.15716 -0.867785 15.9748
4.14955 -0.857017 15.6324
4.15526 -0.861839 15.976
4.18584 -0.864519 16.0836
3.81753 -0.818488 15.2898
3.93382 -0.827866 15.527
4.20898 -0.859781 16.0132
4.07401 -0.843162 15.8876
4.17081 -0.859869 16.2354
4.19013 -0.853144 16.1882
4.23704 -0.855814 16.1233
4.19282 -0.855114 16.1938
4.17794 -0.92152 16.2615
4.16961 -0.919455 16.2606
4.18067 -0.905073 16.2867
4.04563 -0.899075 16.1762
4.26061 -0.997802 15.9138
0.711237 -0.821026 6.87761
-2.00377 -0.645231 -0.21784
3.88377 -0.987603 15.8163
3.87232 -0.988971 15.8093
3.87742 -0.97826 15.8339
3.89438 -0.958427 15.8698
3.69131 -1.0074 15.4644
3.84706 -0.970585 15.7421
3.86696 -0.962917 15.8004
3.86007 -0.964521 15.7745
3.89322 -0.947404 15.8836
3.8773 -0.947808 15.8408
4.24097 -0.940984 15.8463
3.89138 -0.936881 15.8675
4.23267 -0.943547 15.7948
3.78257 -0.957022 15.6081
3.97904 -0.929308 15.889
4.19471 -0.9458 15.7222
3.79025 -0.943373 15.7057
3.8418 -0.93781 15.75
3.90731 -0.92255 15.9226
3.85086 -0.941478 15.6898
4.21956 -0.855285 16.2015
3.80493 -0.937476 15.6581
4.20118 -0.929908 15.7995
3.90932 -0.919103 15.8772
3.89989 -0.918053 15.8884
4.00014 -0.924982 15.8023
4.00906 -0.920586 15.82
4.27832 -0.924266 15.7991
4.30468 -0.91479 15.9259
4.02258 -0.91456 15.8205
3.98594 -0.914849 15.8041
3.97211 -0.899882 16.0263
3.4661 -1.09187 12.8186
4.20961 -0.919021 15.7688
3.9099 -0.901797 15.9341
3.93255 -0.900506 15.9637
3.9945 -0.913258 15.752
4.08294 -0.941655 15.2637
4.0976 -0.927906 15.5109
4.00183 -0.908284 15.8119
4.25146 -0.928199 15.5394
3.95487 -0.911467 15.6666
4.01038 -0.905492 15.7769
4.01659 -0.904776 15.7946
4.00637 -0.904966 15.7851
3.95615 -0.907047 15.716
3.77442 -0.908862 15.5789
3.99818 -0.893036 15.9064
3.91573 -0.889961 15.9175
3.90634 -0.896496 15.7069
3.93422 -0.88523 15.9836
3.82454 -0.887442 15.7187
3.90652 -0.884991 15.8825
4.07426 -0.902851 15.4458
3.67177 -0.901815 15.0002
3.76819 -0.896803 15.1732
4.00191 -0.887407 15.814
3.99248 -0.884979 15.8875
3.77916 -0.886008 15.4797
3.86432 -0.880876 15.8018
4.31727 -0.897641 15.7671
4.05744 -0.894606 15.3604
4.2861 -0.892019 15.6744
4.27482 -0.889276 15.8264
3.87784 -0.885254 14.9565
4.22505 -0.88826 15.4565
0.652257 -0.832172 5.55513
1.59275 -0.802856 8.54683
4.24375 -0.846706 16.1489
3.93294 -0.865886 15.9834
4.17664 -0.877295 15.3493
3.36475 -0.828806 14.3887
4.01675 -0.866035 15.9244
4.21286 -0.873362 16.1064
4.19123 -0.861293 15.7335
4.16697 -0.854596 15.6537
4.21959 -0.864979 16.0715
3.99114 -0.839876 15.7594
4.11787 -0.858626 16.1407
4.19442 -0.847997 15.7952
4.10564 -0.855079 16.1149
4.14173 -0.859779 16.1791
4.17169 -0.863735 16.2299
4.18577 -0.865086 16.2777
4.17416 -0.860249 16.2375
4.17019 -0.859822 16.2357
4.2049 -0.859179 16.2034
4.17371 -0.858645 16.2369
4.22691 -0.851204 16.0913
4.31862 -0.930185 15.7233
4.18047 -0.911687 16.2616
4.3225 -0.913119 15.7503
3.57834 -0.840056 14.2945
4.18521 -0.981323 15.7314
3.92105 -0.94681 15.9577
3.98811 -0.962018 15.8117
3.89355 -0.953963 15.8682
3.8959 -0.949937 15.8761
3.99317 -0.941723 15.9023
3.91378 -0.932102 15.9301
4.03441 -0.833361 15.8366
3.8724 -0.963223 15.5294
3.90024 -0.924229 15.8831
4.21581 -0.930879 15.7882
4.00239 -0.922894 15.804
3.73098 -0.944656 15.4512
3.91272 -0.910736 15.9281
4.21459 -0.853193 16.1029
4.00723 -0.919716 15.8062
4.01541 -0.916924 15.804
4.24665 -0.935043 15.5407
4.00587 -0.911754 15.8101
4.1171 -0.935531 15.3892
4.08699 -0.929811 15.4376
4.11979 -0.918529 15.6508
4.00085 -0.906492 15.792
3.85115 -0.905428 15.7153
4.1778 -0.845417 15.7402
3.96636 -0.905369 15.7343
3.99374 -0.89777 15.8069
4.07415 -0.832693 15.963
3.9057 -0.887549 15.7972
4.18339 -0.894467 15.7595
3.8952 -0.878544 15.8848
4.24044 -0.896159 15.5604
4.14485 -0.89226 15.583
3.70888 -0.884618 15.0222
3.99401 -0.877464 15.813
4.20746 -0.884717 15.7829
3.6943 -0.869558 15.3442
4.19624 -0.859201 16.1685
3.38093 -0.81944 13.3103
3.40064 -0.829507 13.6843
4.09669 -0.862129 16.1058
4.06715 -0.844227 15.8014
4.20666 -0.851051 15.7951
4.03731 -0.843795 15.8711
4.25519 -0.921885 15.846
4.15064 -0.982486 16.2936
4.16655 -0.975758 16.3126
4.22393 -0.932432 16.423
4.21144 -0.930469 16.4191
4.41954 -0.97974 15.9906
4.38821 -0.930978 16.1781
4.39021 -0.929138 16.1779
4.39126 -0.922924 16.1849
4.41467 -0.905952 16.0361
4.25586 -0.877434 16.4734
4.21997 -0.922908 16.4213
4.22198 -0.920126 16.4219
4.21984 -0.911713 16.4216
4.18373 -0.902936 16.2849
4.2979 -0.930058 15.785
4.29159 -0.914029 15.6822
3.81343 -0.889468 15.7473
4.18921 -0.854315 15.6879
4.235 -0.865363 16.429
4.21149 -0.957659 16.2765
4.05461 -0.946757 16.107
4.29067 -0.885422 15.8871
4.1635 -0.896838 16.2509
4.19525 -0.95122 16.2806
4.37757 -0.990081 15.8458
4.17869 -0.888876 16.2792
4.29595 -0.852211 15.9681
4.18497 -0.94593 16.2771
3.9264 -0.891372 15.9672
4.22283 -0.867622 16.3676
4.22097 -0.868258 16.3698
3.94052 -0.945856 15.9643
3.91113 -0.89161 15.9423
4.34672 -0.931241 15.9734
4.28059 -0.916164 15.9753
4.18058 -0.941327 16.2614
4.20556 -0.86362 16.3185
4.17684 -0.938707 16.2606
4.18243 -0.935916 16.2795
4.36305 -0.920109 15.8436
4.31531 -0.853888 16.3034
4.178 -0.926961 16.2943
4.18292 -0.906365 16.2855
4.36681 -0.889155 15.8504
4.16887 -0.90164 16.2543
4.3488 -0.871957 16.0317
3.68948 -0.843554 14.2719
4.3352 -1.00091 15.9161
4.17184 -0.933822 16.2556
4.17258 -0.931543 16.2587
4.31457 -0.855253 15.8585
3.45762 -0.822086 13.6782
4.17931 -0.908947 16.2851
4.22193 -0.874306 16.1331
4.12841 -0.869709 15.2796
3.98677 -0.897219 16.0501
3.89956 -0.868609 15.9212
4.29877 -0.942942 15.7345
4.06959 -0.846903 15.9507
4.08163 -0.845833 15.838
3.9419 -0.769416 15.769
3.7089 -0.876648 15.0147
3.47504 -0.873958 14.3618
4.00225 -0.918964 15.7937
4.00481 -0.912422 15.7987
3.99132 -0.907363 15.8999
4.06168 -0.915078 15.3852
0.394662 -0.731099 4.27648
3.98511 -0.943086 15.8073
4.2703 -0.924865 15.8321
4.00086 -0.921209 15.7909
4.20178 -0.929024 15.7896
4.20539 -0.92873 15.7965
4.19232 -0.938115 15.768
3.7487 -0.987907 15.4884
3.76553 -0.854701 15.1149
3.94164 -0.935368 16.0054
3.98325 -0.903219 16.0482
3.93399 -0.888842 15.9961
3.96669 -1.00052 15.7421
4.21143 -0.840871 16.0564
3.8562 -0.983004 15.833
4.20125 -0.843396 16.0209
3.85851 -0.988713 15.777
3.87594 -0.979611 15.8246
3.87636 -0.978245 15.8321
3.89081 -0.971281 15.8609
3.88879 -0.971017 15.8628
3.9882 -0.974404 15.8106
3.88187 -0.965729 15.8477
4.08411 -0.849567 15.8354
3.92539 -0.940692 15.9603
3.85506 -0.970469 15.7552
3.89236 -0.951282 15.879
4.2287 -0.952339 15.8113
3.86856 -0.955461 15.8046
3.88554 -0.949319 15.8472
3.85465 -0.956972 15.7841
4.21023 -0.835394 16.0253
3.86813 -0.946391 15.8063
3.98347 -0.944635 15.7999
3.8915 -0.947757 15.7688
3.91811 -0.928477 15.9271
3.77134 -0.958896 15.6189
3.93882 -0.918647 15.9724
4.18331 -0.935923 15.7736
3.87594 -0.960682 15.5435
3.90632 -0.92586 15.8743
3.84873 -0.937604 15.7481
4.18457 -0.930965 15.7977
3.99346 -0.91981 15.9086
4.19909 -0.930311 15.7922
4.17559 -0.862696 16.0525
4.21941 -0.857691 15.7783
3.97947 -0.92597 15.7913
4.00359 -0.924898 15.7887
3.75248 -0.949512 15.5016
4.18252 -0.924323 15.7904
4.01325 -0.921943 15.7913
3.89799 -1.00601 14.6566
4.02532 -0.912849 15.8222
4.03911 -0.909894 15.8473
4.21806 -0.855784 16.0697
3.84281 -0.911272 15.7506
4.25659 -0.926577 15.5841
4.26161 -0.923346 15.5852
4.24203 -0.925098 15.5222
4.00307 -0.905622 15.7827
3.9163 -0.906559 15.7412
3.98918 -0.898673 15.8968
3.91403 -0.894007 15.9341
4.25376 -0.863465 15.8253
3.91914 -0.891132 15.9238
4.11305 -0.914466 15.4098
4.14521 -0.850703 16.0374
4.01331 -0.889304 15.8804
3.69955 -0.908339 15.0086
4.16901 -0.895564 15.7123
4.10636 -0.900935 15.4906
3.94294 -0.888494 15.7322
4.02339 -0.885685 15.8902
3.73075 -0.898548 15.0255
3.75525 -0.896679 15.1194
3.84389 -0.876346 15.7755
3.89595 -0.876047 15.8709
3.9027 -0.875925 15.8872
3.86896 -0.874538 15.9001
4.18972 -0.893733 15.3938
4.25204 -0.889222 15.5667
4.13792 -0.886672 15.4606
4.03636 -0.875358 15.9903
3.67363 -0.87478 14.8748
4.24026 -0.881743 15.8215
3.57459 -0.864269 14.7703
4.24544 -0.882703 15.4858
4.08634 -0.846372 15.9141
4.24685 -0.880716 15.539
4.19866 -0.877151 15.385
4.24762 -0.857743 15.8297
3.19103 -0.830921 14.0377
2.75294 -0.799419 12.0814
3.97144 -0.862747 15.7519
4.26846 -0.872874 15.815
4.20196 -0.858091 15.3855
4.24479 -0.867505 15.8286
4.1875 -0.928169 15.7943
4.22414 -0.856547 16.1698
3.92847 -0.949403 15.9774
3.93553 -0.893555 15.9718
3.93785 -0.879752 15.9851
1.05436 -0.687203 7.14648
3.85627 -0.990698 15.7777
3.85762 -0.986518 15.7769
4.22633 -0.962408 15.8109
4.24885 -1.00696 15.5168
4.22876 -0.956259 15.8105
3.84891 -0.97649 15.7528
3.84685 -0.962787 15.7444
3.88204 -0.944672 15.8368
3.84734 -0.947749 15.7548
3.91252 -0.922372 15.9144
3.8729 -0.96279 15.526
3.8489 -0.937612 15.7514
3.90782 -0.923165 15.8782
4.20698 -0.928969 15.7967
4.26966 -0.94627 15.6219
4.21064 -0.83471 16.0317
4.00856 -0.925811 15.7944
3.98147 -0.925349 15.7988
4.00633 -0.923124 15.7959
3.79403 -0.94114 15.5841
4.0177 -0.919814 15.7909
4.01689 -0.918418 15.7923
4.00893 -0.916867 15.8093
4.19455 -0.916874 15.8102
4.00677 -0.907139 15.8692
3.84375 -0.915451 15.7438
4.04863 -0.906581 15.8679
4.00295 -0.910846 15.8061
4.268 -0.924509 15.6293
3.86217 -0.91045 15.7523
4.25325 -0.927606 15.5625
3.87163 -0.904237 15.8211
4.14684 -0.922192 15.5964
4.07533 -0.848885 15.8981
4.08211 -0.924546 15.493
3.99355 -0.903216 15.8051
4.02129 -0.843096 15.8221
4.07985 -0.927076 15.4207
4.07873 -0.925383 15.4145
4.07663 -0.921267 15.4139
3.76583 -0.900575 15.6775
4.08012 -0.919553 15.4087
4.02316 -0.918689 15.3601
4.1568 -0.852272 16.0684
4.23976 -0.896145 15.8212
4.01119 -0.887029 15.8732
4.00653 -0.887784 15.8196
4.08101 -0.850906 15.9129
4.268 -0.900487 15.6332
4.0089 -0.840095 15.7069
4.27232 -0.899362 15.6286
4.23808 -0.891945 15.8247
3.74026 -0.896079 15.0591
3.84223 -0.879058 15.7733
4.00916 -0.848406 15.819
3.66755 -0.892425 14.9883
3.95086 -0.89043 15.2116
3.75581 -0.876189 15.3276
4.16029 -0.886168 15.3379
3.68603 -0.873176 14.9559
3.52692 -0.868557 14.4828
4.13666 -0.877755 15.4985
3.59699 -0.85255 14.7013
3.30225 -0.840857 14.2189
3.20302 -0.83698 14.019
2.89555 -0.816632 12.3107
4.24104 -0.875981 15.8251
3.79739 -0.85264 15.3662
4.04931 -0.848523 15.9249
3.58174 -0.82264 14.6732
3.58235 -0.82301 14.6975
4.23938 -0.869847 15.824
3.99332 -0.857421 15.8127
3.63464 -0.819842 14.8306
-1.76483 -0.386913 6.20573
4.00451 -0.855367 15.8079
4.24949 -0.867006 15.8092
4.01404 -0.856113 15.8738
3.06028 -0.80617 12.761
4.20801 -0.85531 16.1155
4.22472 -0.853092 16.0597
4.24957 -0.857526 15.8513
3.87199 -0.988576 15.816
3.8637 -0.989773 15.7904
3.87903 -0.979641 15.8276
3.89089 -0.970933 15.8648
3.88934 -0.971346 15.8582
3.97016 -0.989281 15.7549
3.85896 -0.986583 15.776
4.22514 -0.963679 15.8086
3.97028 -0.984847 15.7519
3.88101 -0.970895 15.835
4.22525 -0.962186 15.8114
4.22894 -0.961478 15.8098
3.9956 -0.962991 15.8266
3.96903 -0.965721 15.7594
3.86852 -0.959711 15.8071
3.86438 -0.959964 15.8062
3.89458 -0.942088 15.8852
3.98483 -0.949304 15.8045
3.90925 -0.933381 15.9112
3.86248 -0.951953 15.7936
4.23416 -0.93723 15.8124
4.11507 -0.983425 15.5064
3.89156 -0.921666 15.8705
4.20579 -0.929855 15.7913
3.9853 -0.927768 15.8012
3.84667 -0.933174 15.745
3.99953 -0.923182 15.8009
4.21788 -0.924475 15.7869
4.00667 -0.922614 15.7959
3.99129 -0.921416 15.8062
3.84148 -0.927311 15.7333
3.92139 -0.908621 15.9116
3.72828 -0.951664 15.4809
4.01802 -0.919766 15.7905
3.92459 -0.906205 15.9162
4.2248 -0.921783 15.7751
3.77691 -0.939185 15.5669
3.98508 -0.915984 15.8024
4.01183 -0.915323 15.7999
3.98545 -0.915248 15.798
4.19485 -0.91457 15.8061
4.00374 -0.912675 15.8027
3.86847 -0.911085 15.7888
3.98501 -0.910858 15.7943
4.0028 -0.908026 15.8031
4.03277 -0.906684 15.8115
3.79697 -0.917522 15.6081
3.85514 -0.904288 15.7894
4.01353 -0.906985 15.7741
3.89255 -0.897549 15.8692
4.02742 -0.89886 15.8574
4.07737 -0.923445 15.4221
4.05544 -0.923277 15.4166
4.07877 -0.916899 15.4687
3.69127 -0.903017 15.5377
3.89616 -0.887832 15.8853
4.11082 -0.917133 15.4132
3.90626 -0.886235 15.8803
4.07883 -0.910872 15.4037
3.71099 -0.916237 15.059
4.07722 -0.910331 15.3711
4.06504 -0.905045 15.4373
3.9005 -0.880126 15.8674
3.69465 -0.905512 15.0041
3.90137 -0.877213 15.8873
3.91213 -0.872477 15.9193
4.00007 -0.877453 15.8207
3.67298 -0.881746 15.0202
4.01698 -0.875555 15.8835
3.84592 -0.872458 15.5616
3.69398 -0.873816 14.9727
3.39966 -0.863731 14.1692
4.17872 -0.884489 15.3441
3.83276 -0.875778 14.7804
3.45716 -0.863762 14.38
3.5903 -0.857566 14.7397
3.24222 -0.840148 14.169
3.71442 -0.854649 15.0916
3.99417 -0.866016 15.7916
-0.909271 -0.635207 1.93017
2.84385 -0.810715 12.7892
3.2028 -0.821425 14.0129
3.72338 -0.845234 14.8562
3.70967 -0.845668 15.1817
4.00359 -0.858508 15.2308
3.53689 -0.827641 14.1058
3.10504 -0.798623 12.9856
3.36119 -0.819714 14.3272
3.78244 -0.847801 15.3821
4.10598 -0.855071 15.8266
4.04219 -0.856495 15.995
4.15698 -0.861211 15.9747
4.08262 -0.850901 15.8378
4.07421 -0.856199 16.0036
4.15149 -0.858957 15.961
4.08313 -0.851389 15.914
4.03989 -0.845666 15.8758
4.23414 -0.856455 15.8353
4.07871 -0.844827 15.8238
4.06718 -0.851219 15.9667
3.93872 -0.826763 15.744
4.12645 -0.849844 16.0014
4.19977 -0.833837 15.9865
4.14417 -0.848154 16.0696
4.0091 -0.8992 15.8695
4.10215 -0.856296 16.078
3.91074 -0.924548 15.9161
3.91614 -0.869216 15.9203
3.96985 -1.00174 15.7492
3.97023 -0.999231 15.7497
3.85209 -0.990526 15.8124
3.85992 -0.991194 15.7835
3.88834 -0.969831 15.8632
3.88195 -0.970965 15.8463
3.85881 -0.987265 15.7744
3.89072 -0.961845 15.8668
3.8501 -0.981221 15.7579
3.96993 -0.973952 15.7578
3.85228 -0.97766 15.7625
3.85101 -0.973288 15.7526
3.89757 -0.946512 15.8775
3.89482 -0.944359 15.8842
3.88971 -0.944781 15.8669
3.60877 -1.03556 15.3916
3.96662 -0.957959 15.756
3.85137 -0.961293 15.7547
3.88338 -0.937448 15.844
4.14259 -0.867834 15.9946
3.86138 -0.944132 15.7895
3.84976 -0.945583 15.7564
4.20907 -0.929906 15.7933
3.87069 -0.940747 15.7231
4.11227 -0.848662 15.9303
3.7841 -0.952251 15.6177
3.9075 -0.931286 15.7641
4.00598 -0.925906 15.7928
4.19229 -0.921369 15.806
4.02526 -0.921585 15.7926
4.01284 -0.918615 15.8004
3.99293 -0.916928 15.8062
4.1884 -0.940718 15.5172
4.00861 -0.911805 15.7942
4.11526 -0.848714 15.9279
3.92571 -0.941256 15.4602
3.98181 -0.908429 15.7935
4.00314 -0.907723 15.7784
4.00447 -0.905864 15.8006
3.99457 -0.896782 15.9072
4.12059 -0.848928 15.9253
4.15333 -0.85243 16.0549
4.18273 -0.928931 15.5119
3.98175 -0.904615 15.7861
3.8454 -0.904015 15.7393
4.07513 -0.928219 15.4368
4.05198 -0.946438 15.1496
4.07017 -0.924988 15.4301
3.81991 -0.921162 15.4251
4.11879 -0.852833 15.8795
4.00016 -0.842146 15.6833
4.10423 -0.854363 15.8379
3.75858 -0.90282 15.5724
3.72567 -0.918844 15.1027
4.00555 -0.889039 15.8175
3.89141 -0.882371 15.8745
4.07979 -0.909375 15.3788
4.09413 -0.857252 16.0401
4.24131 -0.900972 15.5226
3.59193 -0.889094 15.3293
4.10563 -0.896688 15.4855
4.13661 -0.851045 16.0201
4.04167 -0.858357 15.9956
4.23964 -0.895974 15.5398
4.02275 -0.877809 15.8977
4.13577 -0.894843 15.2618
4.18442 -0.891665 15.3866
3.75437 -0.876141 15.2777
4.22851 -0.888357 15.4607
3.85049 -0.873693 15.4805
3.69535 -0.873682 14.9728
3.58117 -0.86857 14.7772
-0.33358 -0.793568 6.92304
4.01606 -0.877405 14.9728
3.74023 -0.870388 14.4764
-1.34189 -0.699272 1.58714
3.74267 -0.858229 15.3045
3.70638 -0.85649 14.2969
3.30531 -0.84072 13.4126
3.20682 -0.836125 13.5128
3.80091 -0.858231 15.3731
4.05914 -0.845187 15.8588
3.35461 -0.829326 13.6054
3.28344 -0.826633 13.8777
4.04191 -0.846773 15.8769
3.07811 -0.797533 13.7716
3.53535 -0.818659 14.5829
3.84542 -0.834509 15.4721
3.33678 -0.76754 13.8107
3.89001 -0.949887 15.8821
3.89452 -0.944614 15.8849
4.21474 -0.929198 15.7893
3.8886 -0.931869 15.7921
4.21798 -0.922429 15.7773
4.2171 -0.922184 15.7793
4.16136 -0.851842 16.0758
4.04686 -0.861518 15.9862
3.89517 -0.975972 15.8677
3.8706 -0.98327 15.8315
3.97181 -0.995429 15.7531
3.89487 -0.951977 15.8757
3.89657 -0.950918 15.876
3.89463 -0.945482 15.885
4.21302 -0.929385 15.7937
4.21485 -0.927502 15.7896
3.89241 -0.90984 15.8663
4.21747 -0.905541 15.8056
3.90131 -0.889558 15.8854
3.89607 -0.880982 15.873
4.23989 -0.897206 15.544
4.04216 -0.855429 15.9672
4.05873 -0.856978 15.9645
3.85227 -0.980221 15.7661
4.15122 -0.848229 16.0558
-5.42809 0.507502 -7.01448
3.98725 -0.847853 15.7576
4.17441 -0.839022 15.916
4.10549 -0.857602 15.8392
3.87654 -0.961472 15.8064
4.17431 -0.839559 15.9155
3.96927 -0.966708 15.7585
3.85348 -0.947889 15.7809
3.94093 -0.950309 15.7479
3.98273 -0.938806 15.793
4.19987 -0.931543 15.797
4.1846 -0.930401 15.806
3.76004 -0.845252 15.2708
3.98263 -0.93214 15.7966
4.12835 -0.84989 16.0185
4.13544 -0.851644 16.0211
3.90374 -0.846857 15.4886
3.8463 -0.943169 15.6977
4.13424 -0.851274 16.0148
4.00736 -0.925603 15.7983
4.00393 -0.922499 15.8071
3.99837 -0.9212 15.8098
4.14849 -0.855131 15.9801
4.06525 -0.85012 15.9787
4.16203 -0.862763 16.0283
3.71741 -0.82961 15.0441
4.01918 -0.905283 15.8976
4.00773 -0.915432 15.8004
3.99634 -0.903244 15.9019
3.98172 -0.913417 15.8001
4.00883 -0.904065 15.8798
3.98668 -0.909631 15.7976
4.01613 -0.909961 15.7859
4.02328 -0.905586 15.8219
4.00301 -0.90651 15.7999
3.98394 -0.906606 15.7971
4.03103 -0.904291 15.8059
4.00887 -0.90032 15.8035
4.08279 -0.92836 15.419
3.61878 -0.827437 14.7909
4.07663 -0.92326 15.4142
4.09286 -0.920391 15.4085
4.1305 -0.903997 15.5402
3.8289 -0.899141 15.4404
3.80788 -0.88572 15.6426
4.06241 -0.846614 15.7914
4.15565 -0.896791 15.3738
3.81047 -0.88906 15.2361
3.76222 -0.887096 15.1591
3.61844 -0.889996 14.7469
4.1855 -0.884164 15.7203
3.72914 -0.87857 15.2418
3.64 -0.88124 14.1576
3.69111 -0.869536 15.0735
4.05521 -0.846462 15.8521
3.80222 -0.863371 15.5544
3.19996 -0.855288 13.1629
3.13342 -0.842264 13.5552
4.00799 -0.842126 15.7952
3.99625 -0.866052 15.7981
3.849 -0.859992 14.7261
3.58567 -0.847633 14.7758
3.82973 -0.855543 14.7547
3.59835 -0.838975 14.0838
3.49989 -0.834115 14.0515
3.74346 -0.884647 15.5437
4.0865 -0.853729 16.0255
3.87708 -0.973801 15.8323
3.88218 -0.967185 15.8491
3.94412 -0.915036 15.8574
3.99741 -0.888823 15.9111
4.14957 -0.849388 16.0474
4.08406 -0.85305 16.0166
4.20862 -0.883714 15.7921
-15.3117 -0.237468 -39.1844
4.10934 -0.848701 15.934
3.96935 -0.985203 15.7527
3.87983 -0.966501 15.8347
3.86834 -0.971997 15.8077
3.96796 -0.978254 15.7563
3.8687 -0.970218 15.8108
3.88586 -0.948643 15.8474
3.86779 -0.956662 15.8095
3.9828 -0.949684 15.7985
3.86791 -0.951677 15.8095
3.98293 -0.938416 15.7998
4.08622 -0.813052 15.9299
4.01002 -0.925894 15.8069
3.98684 -0.924328 15.8015
4.11747 -0.849185 15.9317
4.01838 -0.922037 15.796
3.99695 -0.923144 15.7896
4.10309 -0.96339 15.4829
4.02666 -0.920869 15.7909
4.01156 -0.918787 15.8072
4.00621 -0.919322 15.8036
4.02087 -0.919828 15.7922
4.02752 -0.918853 15.7925
4.01186 -0.909981 15.8071
4.00284 -0.910028 15.8066
3.99737 -0.899346 15.9009
4.00213 -0.908863 15.809
4.00502 -0.908678 15.8026
4.01799 -0.896757 15.8935
3.87025 -0.907118 15.7841
4.00671 -0.908323 15.7703
4.00292 -0.905714 15.7867
3.86247 -0.909282 15.7396
3.87688 -0.903456 15.7895
3.99529 -0.890285 15.9014
3.46156 -0.866925 14.3236
4.08096 -0.928674 15.421
4.0805 -0.923979 15.4163
4.08298 -0.92287 15.4088
4.08117 -0.918393 15.4711
4.08614 -0.916459 15.4034
4.19003 -0.915618 15.4015
4.0575 -0.909453 15.4239
4.07123 -0.907266 15.4396
4.08135 -0.908928 15.3805
4.06971 -0.905536 15.4404
3.86882 -0.895591 15.5298
4.07954 -0.907121 15.3802
3.70061 -0.902537 15.0241
4.14305 -0.902805 15.2619
4.04366 -0.89254 15.4563
3.68746 -0.896574 14.9279
3.83228 -0.880621 15.4962
4.18363 -0.883782 15.7279
3.95506 -0.890906 15.1527
4.1762 -0.840751 15.9311
3.66274 -0.871552 15.1821
4.10877 -0.881425 15.4893
3.61306 -0.869113 15.0617
4.13132 -0.850914 16.0162
3.32086 -0.872439 13.4828
4.12997 -0.880441 15.2578
3.82827 -0.863207 14.692
3.35925 -0.847136 13.5281
3.23037 -0.842858 13.1789
3.88451 -0.858539 15.6655
3.28065 -0.820112 14.2937
3.75366 -0.844739 15.1705
3.99285 -0.860856 15.794
4.1482 -0.864558 15.5596
3.5376 -0.817842 14.5856
3.68997 -0.816529 14.7034
4.0299 -0.85623 15.9446
4.03744 -0.856262 15.948
4.03404 -0.854027 15.9269
4.03413 -0.854991 15.9622
4.15127 -0.845951 15.6116
4.03635 -0.852855 15.9247
4.04114 -0.855028 15.9643
4.00835 -0.844307 15.8018
4.04139 -0.852393 15.9208
4.03846 -0.852262 15.9222
4.0376 -0.85225 15.9232
4.08813 -0.846208 15.7837
4.05189 -0.854623 15.9808
4.05046 -0.854553 15.9814
4.0943 -0.849171 15.8548
4.08299 -0.847205 15.8358
4.06333 -0.846247 15.8676
4.06505 -0.845052 15.8692
4.17672 -0.977027 15.7169
3.88202 -0.94273 15.8387
3.83759 -0.914611 15.7925
4.05249 -0.862505 15.9834
4.05432 -0.854536 15.9751
4.07622 -0.853702 16.0011
3.39155 -0.870672 14.1441
3.98314 -0.949416 15.7999
3.84049 -0.971771 15.7277
3.9719 -0.955823 15.7649
2.08778 -0.784362 11.9365
3.84179 -0.966927 15.729
3.98335 -0.93931 15.7996
3.84571 -0.955549 15.7346
3.99804 -0.917447 15.9055
3.86242 -0.988404 15.5468
3.9862 -0.931197 15.8018
4.01267 -0.925871 15.7951
3.73703 -0.961573 15.6063
4.02655 -0.924862 15.7946
3.99718 -0.921283 15.8102
3.69658 -0.965505 15.5561
4.00074 -0.921516 15.7974
2.60192 -0.787209 12.0648
3.7165 -0.822187 15.0446
4.13916 -0.850878 16.0183
4.02657 -0.917255 15.8017
4.01888 -0.900236 15.8967
4.01517 -0.912363 15.7892
4.01145 -0.910919 15.8009
4.00516 -0.909518 15.8058
3.98304 -0.910195 15.8007
3.99598 -0.897181 15.9072
4.01116 -0.912535 15.7736
4.18295 -0.920762 15.6787
3.86341 -0.91282 15.7463
3.85928 -0.906832 15.7992
4.0164 -0.907051 15.7911
4.00645 -0.904459 15.8143
4.00147 -0.905267 15.7993
3.93826 -0.920171 15.6252
4.00133 -0.899501 15.8233
4.01326 -0.897439 15.8372
4.18433 -0.916149 15.626
3.84103 -0.90132 15.7119
4.06233 -0.926896 15.4034
4.03613 -0.927381 15.3706
3.84351 -0.896759 15.7253
4.07582 -0.923301 15.4099
4.18381 -0.908057 15.6207
4.05242 -0.917998 15.4323
4.11194 -0.917325 15.4121
3.99119 -0.880846 15.9027
3.958 -0.925563 15.0964
3.85015 -0.886924 15.7182
4.07807 -0.910685 15.3725
4.06937 -0.907938 15.4179
4.15491 -0.923867 15.1312
4.09363 -0.903044 15.4315
4.15661 -0.904128 15.378
4.09037 -0.898279 15.4298
3.69257 -0.895782 15.2051
3.90737 -0.907505 15.0197
3.77425 -0.897579 15.1629
4.14553 -0.902586 15.2798
3.6653 -0.894916 14.9989
3.69085 -0.910122 14.356
4.13797 -0.895072 15.2716
4.09363 -0.890129 15.3865
3.81315 -0.8991 14.735
4.20239 -0.889453 15.4433
4.12962 -0.886256 15.4618
3.96179 -0.885475 15.2378
3.57094 -0.874608 14.6098
4.01654 -0.885004 14.871
3.55606 -0.863911 15
3.79136 -0.863284 15.6537
4.03285 -0.882043 14.9257
-29.7159 0.0416714 -72.2745
4.16233 -0.871506 15.3357
3.93491 -0.859342 15.6748
3.83218 -0.852094 15.4493
3.2019 -0.803639 13.1566
3.35998 -0.810341 14.3862
3.97032 -0.854373 15.8063
4.09762 -0.847627 15.9386
4.04477 -0.852841 15.6816
3.8433 -0.833438 15.4645
3.87168 -0.835055 15.5175
4.03899 -0.854947 15.9323
4.03894 -0.853965 15.9339
4.02344 -0.842747 15.7639
4.11585 -0.849152 15.9329
4.04338 -0.847309 15.8825
4.06232 -0.846579 15.8694
4.04763 -0.849276 15.9247
4.04259 -0.849299 15.9306
4.06439 -0.852021 15.97
4.09435 -0.848279 15.9387
3.99434 -0.916132 15.9079
3.89204 -0.963439 15.8224
3.99517 -0.911649 15.9078
3.99648 -0.898598 15.9088
3.86692 -0.901849 15.8109
4.06775 -0.855695 15.9747
4.06121 -0.851905 15.9613
1.75473 -0.865803 9.87709
3.85142 -0.970129 15.7559
4.10195 -1.01162 15.525
3.96663 -0.963968 15.7523
3.84291 -0.97289 15.7287
3.86567 -0.963348 15.7603
3.98563 -0.946112 15.8026
4.12659 -0.85008 15.9969
3.97071 -0.944758 15.7648
4.17438 -0.947163 15.704
3.98327 -0.933505 15.7983
4.13409 -0.8493 15.9227
4.00997 -0.924993 15.7973
3.99922 -0.922592 15.8083
3.98638 -0.923856 15.8024
4.02599 -0.917311 15.7944
4.02595 -0.915775 15.7942
3.98379 -0.915062 15.8027
4.00672 -0.912803 15.8057
4.1345 -0.84975 15.9226
4.00727 -0.911905 15.8066
4.00309 -0.911451 15.8045
4.00827 -0.912549 15.79
3.98233 -0.911167 15.8018
3.99855 -0.909255 15.8095
3.36831 -0.895796 14.2294
4.12062 -0.850318 15.9873
4.01369 -0.905041 15.8057
4.00361 -0.908985 15.7645
4.01 -0.903704 15.8106
3.98528 -0.904941 15.7997
3.84839 -0.91133 15.7438
3.85142 -0.908663 15.7392
4.01204 -0.898165 15.8341
3.91748 -0.905211 15.7453
3.82396 -0.925573 15.4353
4.0791 -0.923855 15.4156
4.05625 -0.923241 15.4191
4.06867 -0.923174 15.4019
3.85306 -0.893138 15.7467
3.91316 -0.903541 15.6074
4.05607 -0.916442 15.4253
3.90776 -0.884501 15.7866
4.16291 -0.906108 15.3736
4.15008 -0.902753 15.3686
4.15017 -0.899631 15.3656
3.71824 -0.893749 15.0326
4.13488 -0.897766 15.2581
3.74452 -0.890131 15.0855
4.08976 -0.88973 15.3505
3.67224 -0.884016 15.0245
3.68012 -0.88363 15.0479
3.71051 -0.877087 15.0205
3.59464 -0.871657 15.0633
3.87395 -0.870727 15.6
3.74863 -0.867842 15.5098
3.76199 -0.886796 14.4888
3.79534 -0.878368 14.6152
3.75146 -0.860916 15.5331
3.88862 -0.864529 15.5987
3.83464 -0.86211 15.6058
4.13345 -0.874947 15.2749
3.11761 -0.833861 13.4052
3.30571 -0.83883 14.3092
2.4245 -0.785825 11.055
3.88529 -0.85757 15.612
3.64987 -0.840685 14.0485
3.74457 -0.847341 15.5004
3.72824 -0.842745 15.209
4.00953 -0.861303 15.8975
3.30982 -0.801101 13.9189
3.61385 -0.82352 14.7761
3.0539 -0.765939 13.2992
3.65166 -0.820126 14.8544
3.83718 -0.831642 15.4199
4.11497 -0.860588 15.8734
3.62472 -0.794087 14.8071
3.58216 -0.784806 14.718
3.54703 -0.776602 14.6572
4.03452 -0.851694 15.8818
4.0884 -0.845502 15.8471
2.98309 -0.650184 13.4132
4.09333 -0.849617 15.8023
4.11075 -0.849121 15.9333
4.05917 -0.84459 15.7846
4.03552 -0.850169 15.9049
4.07112 -0.850405 15.8843
4.03706 -0.847767 15.8831
4.03195 -0.84613 15.8734
4.0529 -0.849051 15.9285
4.06265 -0.846502 15.8538
3.99734 -0.914544 15.9047
3.85045 -0.97388 15.7527
4.18088 -0.915305 15.742
3.85528 -0.896491 15.7598
3.42425 -0.798485 14.2596
3.96049 -0.96547 15.7272
3.8587 -0.960751 15.7694
3.83305 -1.12732 15.0925
3.9832 -0.939552 15.8002
4.08514 -0.845409 15.9365
3.98261 -0.936288 15.7951
3.99751 -0.922744 15.8095
4.00897 -0.921476 15.8107
4.00471 -0.92162 15.8068
4.10362 -0.976146 15.4667
4.01505 -0.91814 15.8092
4.00837 -0.919439 15.8026
4.00062 -0.919314 15.8002
4.02051 -0.918044 15.8008
4.00761 -0.917081 15.8041
4.00434 -0.917307 15.8031
4.00806 -0.914156 15.8046
3.85701 -0.924663 15.7361
4.01506 -0.899319 15.8852
4.00564 -0.913673 15.7839
3.85057 -0.923325 15.7323
4.01512 -0.909854 15.8044
4.10725 -0.848146 15.9347
4.01625 -0.908592 15.8033
3.84569 -0.918493 15.7456
4.10902 -0.94966 15.4914
4.15557 -0.969401 15.3199
3.98226 -0.897831 15.8615
3.85044 -0.913123 15.7488
3.91587 -0.950249 15.4435
4.01163 -0.905414 15.7952
4.14955 -0.949053 15.4316
4.0146 -0.902633 15.806
3.77013 -0.927513 15.5857
3.83467 -0.922668 15.4768
4.07153 -0.928011 15.4242
4.08204 -0.925064 15.4075
3.91362 -0.902591 15.6064
4.00769 -0.887363 15.8202
4.05666 -0.914224 15.4254
4.06475 -0.81629 15.9056
3.87185 -0.899373 15.5497
4.17916 -0.915818 15.3687
3.87013 -0.896827 15.5669
4.18226 -0.912619 15.3724
3.87856 -0.894982 15.5551
4.06561 -0.90466 15.4378
3.92687 -0.890265 15.6319
4.18434 -0.910644 15.3544
3.8785 -0.892555 15.5488
4.09919 -0.90189 15.4499
3.85677 -0.893927 15.4868
4.17822 -0.906512 15.3716
3.8388 -0.89342 15.4572
4.02112 -0.876087 15.8874
4.08553 -0.9006 15.411
3.81198 -0.882209 15.611
3.74363 -0.902726 15.0769
4.05038 -0.892773 15.4282
3.86989 -0.881917 15.5627
4.16831 -0.897809 15.3524
4.10704 -0.891175 15.4771
3.70556 -0.89777 14.9725
4.07942 -0.891376 15.4087
3.74804 -0.886312 15.1124
3.62935 -0.889508 14.7735
4.03701 -0.887833 15.2555
4.14509 -0.890452 15.2327
3.70419 -0.877073 15.005
4.15613 -0.885329 15.3233
3.78376 -0.886037 14.5743
4.08716 -0.845189 15.8448
2.58746 -0.838528 12.0753
3.14749 -0.849666 13.5252
3.84659 -0.865859 14.7157
-27.5931 0.187058 -65.8944
3.81244 -0.85778 14.6794
3.21631 -0.821158 14.0852
3.36055 -0.820144 13.4499
3.3922 -0.814868 13.4083
3.64885 -0.837388 14.8913
3.86887 -0.849296 15.5023
3.60753 -0.82063 14.7517
4.02928 -0.858707 15.8874
4.09105 -0.859569 15.8047
3.75616 -0.800507 14.8012
4.03339 -0.853388 15.8792
4.10665 -0.854921 15.8431
4.03026 -0.851887 15.9034
4.0435 -0.845359 15.7874
4.04145 -0.852387 15.9209
4.03453 -0.842045 15.7918
4.04992 -0.845027 15.8359
4.08419 -0.846943 15.8338
4.07827 -0.846111 15.8289
4.08246 -0.844768 15.8307
4.08205 -0.845927 15.8451
3.84926 -0.935481 15.7584
4.01926 -0.882981 15.8874
4.04678 -0.852865 15.9233
3.93659 -1.00794 15.4554
3.99532 -0.92426 15.809
4.02563 -0.922869 15.7912
3.99614 -0.920435 15.8089
4.10212 -0.846532 15.8353
4.02626 -0.921984 15.7923
4.01011 -0.920972 15.8003
4.00444 -0.918287 15.8053
4.0281 -0.916845 15.7953
4.02762 -0.91676 15.7959
4.01678 -0.913809 15.8106
3.83855 -0.94315 15.6655
4.01377 -0.909096 15.8055
4.01088 -0.908834 15.8034
4.02913 -0.906609 15.8036
3.82824 -0.975356 15.3488
3.90806 -0.912319 15.7357
4.00304 -0.901812 15.8035
3.9585 -0.908114 15.758
3.90349 -0.910737 15.7344
3.90624 -0.950838 15.4106
4.08995 -0.846836 15.9245
4.07545 -0.841734 15.8019
3.81483 -0.924182 15.4128
4.06216 -0.921086 15.4232
3.52931 -0.974074 14.7272
3.81884 -0.91827 15.4234
4.08469 -0.920918 15.4113
3.85977 -0.90831 15.5126
4.04226 -0.915933 15.4303
4.08944 -0.91527 15.4105
3.85309 -0.890878 15.6889
4.0859 -0.912758 15.4042
3.72915 -0.896609 15.5223
3.85181 -0.895871 15.5475
4.08365 -0.908861 15.3957
4.0556 -0.90647 15.4245
3.88165 -0.89461 15.5557
4.07881 -0.903965 15.4502
3.8415 -0.881348 15.7382
4.17592 -0.908163 15.3675
3.77788 -0.885323 15.6072
3.84557 -0.889466 15.5371
3.77614 -0.885086 15.5868
4.10271 -0.898519 15.4614
3.78782 -0.8825 15.6164
4.16321 -0.903077 15.3749
4.12835 -0.898932 15.44
3.74359 -0.905565 15.1027
3.76432 -0.880681 15.5877
4.11979 -0.893318 15.4707
3.72942 -0.897233 15.0563
3.77663 -0.887936 15.319
3.38606 -0.948866 13.376
3.73678 -0.89158 15.1422
2.97949 -0.817898 12.554
4.04776 -0.889077 15.418
3.67222 -0.888945 15.0185
3.69953 -0.88575 15.0626
3.75482 -0.883018 15.132
3.78331 -0.869781 15.6109
4.17354 -0.8899 15.3362
3.96941 -0.885233 15.2422
3.74418 -0.880747 15.1143
3.66855 -0.880739 15.0168
3.77957 -0.877253 15.2872
3.87833 -0.871619 15.573
3.8721 -0.871256 15.5784
3.87918 -0.870213 15.5795
3.68398 -0.874257 14.965
3.50116 -0.875414 14.573
3.69209 -0.865688 15.1637
4.07802 -0.8443 15.8216
4.10454 -0.847346 15.9314
3.10745 -0.854931 14.0588
3.8797 -0.865168 15.5775
3.73527 -0.864251 15.0384
3.88604 -0.868878 14.6056
3.28841 -0.852349 13.3096
-18.8315 -0.310885 -44.0592
4.00408 -0.866339 15.6374
1.71193 -0.809543 9.78456
3.71577 -0.858408 15.0066
3.60353 -0.854728 14.8401
2.6739 -0.830649 10.8901
1.52991 -0.753423 8.58967
3.22477 -0.813059 14.1856
3.21093 -0.799827 13.2566
3.79209 -0.839461 15.3999
2.39752 -0.688061 11.6199
3.63629 -0.813323 14.7542
3.82227 -0.836272 15.416
4.03455 -0.855983 15.888
4.04696 -0.844716 15.83
4.10624 -0.85773 15.8423
3.9516 -0.833435 15.5896
4.11915 -0.856624 15.832
4.10691 -0.855797 15.8323
4.00244 -0.847374 15.8095
4.0615 -0.845402 15.7825
4.0592 -0.844952 15.788
4.05676 -0.841862 15.7759
3.98322 -0.935634 15.7958
3.98251 -0.935106 15.798
3.98212 -0.928394 15.8033
3.99961 -0.924795 15.8048
3.99804 -0.924413 15.8068
4.10646 -0.847874 15.9374
4.10269 -0.847649 15.9378
2.40486 -0.84682 11.1748
3.33655 -0.83642 13.517
-0.559652 -0.673432 3.44448
3.43487 -0.802072 14.2129
2.31204 -0.504458 12.2147
4.01403 -0.922325 15.7975
4.01292 -0.9227 15.7934
4.02089 -0.919784 15.7917
4.0206 -0.917491 15.7973
3.98634 -0.916948 15.8031
1.18583 -0.725779 7.84571
4.01278 -0.913043 15.8007
3.98316 -0.914663 15.7968
3.98244 -0.91329 15.801
4.11824 -0.832637 15.8012
4.01494 -0.909906 15.805
4.0032 -0.9093 15.81
4.02206 -0.908647 15.8015
3.73586 -0.948102 15.5917
3.96284 -0.907385 15.769
3.92554 -0.910206 15.7531
3.60644 -1.01148 15.0052
4.17466 -0.95308 15.3672
4.17748 -0.963263 15.2644
4.08043 -0.936536 15.4018
4.08667 -0.932007 15.4184
3.87649 -0.909898 15.5837
4.05456 -0.924321 15.4389
4.05642 -0.913712 15.4376
4.11608 -0.913695 15.4333
4.04889 -0.911137 15.4344
4.05872 -0.908767 15.4321
4.12806 -0.90662 15.4261
4.06856 -0.904413 15.4399
4.16985 -0.910669 15.3557
3.78323 -0.885185 15.6213
3.77002 -0.88697 15.5664
4.17404 -0.907693 15.3597
3.75606 -0.883604 15.5477
3.94793 -0.902496 15.177
3.87679 -0.884211 15.5223
3.96138 -0.902634 15.1376
3.40113 -0.903689 14.7311
3.71174 -0.885874 15.2488
3.88036 -0.876725 15.6121
4.05891 -0.842711 15.8519
3.64598 -0.892583 14.8815
4.13589 -0.885521 15.4814
3.75301 -0.867439 15.6175
3.75807 -0.893251 14.5734
3.87984 -0.870933 15.5745
3.91033 -0.893266 14.6688
3.91192 -0.883228 14.976
3.81012 -0.87923 14.6833
4.05906 -0.881855 14.9817
3.80534 -0.875851 14.6779
3.6758 -0.864029 14.8917
3.59547 -0.859077 14.7556
2.49184 -0.832467 11.823
3.7669 -0.855634 15.6225
3.72349 -0.856537 15.0247
3.32332 -0.842391 13.4554
3.75525 -0.850294 15.1808
4.00125 -0.862233 15.8091
3.50364 -0.834091 14.4815
3.47086 -0.826365 13.9969
3.84093 -0.848494 15.2417
4.00083 -0.860441 15.8064
3.62858 -0.827021 14.2916
2.5611 -0.708433 11.2861
3.70221 -0.820888 14.9932
3.30061 -0.754993 14.0212
3.77793 -0.819593 15.1465
4.00737 -0.851588 15.8108
4.11021 -0.859563 15.8627
4.11229 -0.859599 15.8677
4.03831 -0.85426 15.8809
3.98502 -0.841988 15.7558
4.10678 -0.855365 15.8347
3.98298 -0.841172 15.7568
4.10624 -0.855347 15.8418
4.00458 -0.84383 15.7932
4.02056 -0.848362 15.8564
4.05571 -0.844893 15.7855
4.0274 -0.842508 15.7922
4.06245 -0.84349 15.7967
4.06289 -0.843336 15.8008
4.04997 -0.843538 15.8269
4.05813 -0.844682 15.8459
4.05514 -0.845644 15.8702
4.01118 -0.921167 15.8013
4.00023 -0.920674 15.8036
4.01861 -0.917867 15.7966
3.85879 -0.903354 15.7338
3.85847 -0.902319 15.7356
3.2035 -0.833942 13.1119
2.0812 -0.666142 10.7999
2.79634 -0.657041 12.83
3.51659 -0.698942 14.3899
4.11829 -0.848389 15.8337
4.05587 -0.844778 15.8404
4.01228 -0.910882 15.8042
3.71849 -0.966729 15.5837
3.76203 -0.955279 15.6204
3.20067 -0.77714 13.6724
4.0082 -0.907068 15.8037
4.02771 -0.904812 15.8023
4.1115 -0.957142 15.4833
4.0282 -0.90108 15.8038
4.13719 -0.937882 15.4764
4.04492 -0.844723 15.8254
3.84415 -0.92818 15.5211
3.9084 -0.938567 15.428
3.86653 -0.917775 15.5558
4.08378 -0.925181 15.4214
3.85863 -0.904394 15.5448
4.05749 -0.922535 15.3595
3.86593 -0.904662 15.5292
3.86362 -0.901206 15.5251
4.0888 -0.913405 15.4088
4.0663 -0.910898 15.435
4.05303 -0.909904 15.4444
4.05128 -0.907601 15.4409
3.70533 -0.928995 15.0286
3.8458 -0.896028 15.5215
4.12719 -0.907458 15.4129
4.06048 -0.902932 15.4376
4.12408 -0.901511 15.426
4.08457 -0.898132 15.4647
3.73992 -0.882759 15.5437
4.0265 -0.899897 15.3593
4.11415 -0.894893 15.4747
4.10033 -0.896111 15.444
3.68674 -0.903228 15.0305
3.87384 -0.877893 15.6205
4.04003 -0.843854 15.8162
3.71761 -0.896292 15.0393
3.86774 -0.875967 15.6121
4.09198 -0.890451 15.3577
3.77071 -0.885898 15.1688
3.80917 -0.904363 14.6269
3.8831 -0.872284 15.5789
4.15863 -0.888304 15.326
3.70139 -0.880367 14.9659
3.78271 -0.864885 15.6177
3.69569 -0.872366 15.1583
3.81508 -0.884905 14.7556
0.633138 -1.02935 3.33014
3.79135 -0.877635 14.5926
4.07113 -0.878932 15.1144
3.83249 -0.874853 14.6732
3.24194 -0.86114 13.8164
3.59716 -0.853129 14.262
3.30355 -0.840506 13.9772
0.649733 -0.733562 6.59491
3.49564 -0.843558 14.2931
3.78494 -0.854291 15.1803
3.72536 -0.85185 15.0516
3.29729 -0.833654 14.2789
3.6516 -0.848145 15.0513
3.76463 -0.851393 15.6185
3.23765 -0.829175 12.7465
4.03892 -0.863218 14.7564
3.82048 -0.851948 15.4204
4.08272 -0.841619 15.8281
4.14569 -0.866099 15.3556
3.78547 -0.846525 15.3273
3.78261 -0.846639 15.3853
3.60517 -0.799684 14.5409
3.73743 -0.830858 14.293
3.54256 -0.822663 14.5888
4.138 -0.86185 15.486
3.8868 -0.847077 15.6201
3.8971 -0.848183 15.6474
4.10975 -0.847425 15.8416
3.89877 -0.823487 15.2276
3.6509 -0.782255 14.8282
4.14262 -0.842863 15.4781
4.00483 -0.848683 15.8077
4.07038 -0.846774 15.861
4.10666 -0.855215 15.8329
4.10334 -0.854884 15.8371
4.06474 -0.845999 15.7817
4.05142 -0.843765 15.7815
4.0429 -0.842552 15.7884
4.17678 -0.938771 16.2908
4.2931 -0.899847 15.8529
4.22022 -0.868343 16.3654
4.22107 -0.87376 16.3643
4.1812 -0.937021 16.2629
4.17728 -0.928242 16.2889
4.34167 -0.955237 16.0386
4.34282 -0.955023 16.0336
4.34002 -0.956351 16.0252
4.3052 -0.94469 15.8245
4.30634 -0.936055 15.6809
4.36132 -0.918233 15.8481
4.36397 -0.905359 15.8124
4.36336 -0.890455 15.8172
4.26651 -0.88257 15.7976
4.34557 -0.873861 16.0324
4.36456 -0.87424 15.816
4.36294 -0.869949 15.8267
4.20646 -0.869001 16.3284
4.19637 -0.874 16.3148
4.17586 -0.92749 16.287
4.32941 -0.988284 15.9437
3.99311 -0.893932 16.1377
4.21309 -0.928572 15.5134
4.28457 -0.891355 15.6684
4.20157 -0.887975 15.3947
4.16116 -1.08603 15.7134
4.18176 -0.882889 16.2864
4.17541 -0.925911 16.262
3.98354 -0.856487 15.7692
4.32554 -0.956703 15.9281
4.25516 -0.930697 15.9261
4.30658 -0.925675 15.9372
3.98142 -0.908429 16.0559
4.0189 -0.888593 15.1004
4.31395 -0.897039 15.7384
4.20632 -0.927335 15.4343
4.23309 -0.909706 15.8114
3.93716 -0.904361 15.694
4.27639 -0.899126 15.6382
3.77935 -0.89339 15.5859
3.89838 -0.894368 15.693
4.31576 -0.953119 15.9267
4.31417 -0.946032 15.9448
3.83556 -0.906619 15.665
3.84516 -0.915113 15.6816
3.9535 -0.864904 14.8422
3.91132 -0.866931 14.7783
3.75563 -0.913886 15.5642
4.27422 -0.905832 15.8287
3.80438 -0.867496 15.5175
3.94078 -0.93253 16.0065
4.2175 -0.907661 15.8085
3.81442 -0.879432 14.7532
3.66372 -0.838229 15.0613
4.19922 -0.932681 15.7929
3.86408 -0.883944 15.7847
3.99801 -0.842195 15.779
4.20213 -0.933002 15.7894
4.1175 -0.845989 16.0034
3.60175 -0.855532 14.7727
3.99926 -0.84015 15.7719
3.95171 -0.961283 15.7192
3.29208 -0.812306 14.2055
3.97812 -0.912407 15.8
4.00343 -0.913015 15.8025
4.00389 -0.909346 15.8031
3.99436 -0.861184 15.8054
3.97888 -0.910739 15.797
4.05036 -0.914594 15.424
3.56299 -0.820278 14.6378
2.87823 -0.837969 12.812
3.57487 -0.816302 14.6525
4.01812 -0.902048 15.8107
4.01232 -0.902644 15.8095
3.98672 -0.857264 15.8085
2.75307 -0.799197 12.4979
4.11225 -0.96609 15.497
3.88568 -0.960208 15.5306
4.11389 -0.944063 15.5042
3.69814 -0.952307 15.3842
4.13429 -0.932457 15.4945
3.87029 -0.9183 15.5677
3.87029 -0.917081 15.5618
3.87128 -0.915572 15.5727
3.89484 -0.923954 15.5041
3.86762 -0.913284 15.5747
3.82702 -0.929685 15.4307
3.87227 -0.91287 15.5545
4.0873 -0.929563 15.4251
3.877 -0.910478 15.5655
3.85077 -0.918671 15.4787
4.08376 -0.926725 15.4201
3.82973 -0.921443 15.4431
4.06485 -0.925431 15.4196
4.04678 -0.926072 15.4123
4.08492 -0.924744 15.4175
4.07178 -0.923706 15.4149
4.06156 -0.921694 15.4318
4.04908 -0.932492 15.3338
3.77479 -0.928283 15.34
3.84289 -0.904926 15.5367
3.85829 -0.902549 15.5406
4.06366 -0.911284 15.4334
3.85411 -0.897226 15.5381
4.06628 -0.910041 15.4352
4.08108 -0.911004 15.4151
4.07405 -0.908545 15.4146
4.05355 -0.906304 15.4354
4.12496 -0.909578 15.4035
4.05407 -0.904896 15.4388
3.84219 -0.891836 15.5327
4.10111 -0.904526 15.4449
3.85027 -0.891885 15.4728
3.49707 -0.917244 14.9395
4.10009 -0.89775 15.4645
3.82406 -0.895214 15.3746
3.87506 -0.882043 15.5777
3.87145 -0.877813 15.6267
3.70842 -0.903311 15.067
3.87762 -0.877214 15.6102
3.92797 -0.909937 15.0489
3.76631 -0.883005 15.3947
3.88125 -0.875151 15.6164
3.68249 -0.897441 15.0294
3.69591 -0.897519 14.9904
3.75843 -0.891409 15.1182
3.87036 -0.87215 15.613
3.71217 -0.87628 15.3618
3.68594 -0.876751 15.3282
4.13581 -0.8872 15.4771
3.81072 -0.910728 14.6254
3.63695 -0.885025 15.0511
4.0948 -0.887972 15.3923
3.68619 -0.888171 14.9675
3.87322 -0.871159 15.5723
3.87083 -0.87003 15.5725
3.73682 -0.877199 15.1889
3.72804 -0.881227 15.0032
3.64123 -0.871954 15.1579
4.0087 -0.887748 15.1268
3.67906 -0.878049 14.9569
3.96643 -0.889519 14.9396
3.56376 -0.867198 15.0519
4.11396 -0.876876 15.4468
3.73067 -0.878113 14.4731
3.69647 -0.863734 14.9468
2.23206 -0.848891 11.0911
3.33642 -0.856769 14.0805
4.08816 -0.874749 15.1568
3.54513 -0.849858 14.7768
3.88183 -0.857872 15.613
4.10014 -0.873069 15.2157
3.77321 -0.852303 14.3211
3.39659 -0.830332 14.3348
4.11208 -0.867128 15.4015
3.70372 -0.844276 14.3306
4.10295 -0.846353 15.836
3.89789 -0.853327 15.6471
3.8927 -0.852169 15.6446
3.5484 -0.822429 14.2628
3.42226 -0.81463 14.2656
3.82113 -0.845717 15.4303
4.10571 -0.846956 15.836
4.03847 -0.843109 15.8152
3.87216 -0.837254 14.9963
3.62886 -0.815962 14.8299
3.86527 -0.844263 15.6374
3.68268 -0.816215 14.9434
3.30996 -0.780484 14.4602
3.90516 -0.846694 15.6652
2.68597 -0.675541 12.3908
1.60398 -0.537791 9.98284
3.82362 -0.833373 15.4305
3.97454 -0.852533 15.7643
3.89592 -0.82481 14.9875
3.57526 -0.790113 14.6809
3.90704 -0.843503 15.6596
3.92409 -0.82465 15.1235
3.88323 -0.83732 15.6054
3.99676 -0.850411 15.7966
3.99476 -0.847844 15.7839
4.00195 -0.843434 15.7758
4.03319 -0.843738 15.8052
4.04419 -0.844138 15.7843
4.04174 -0.843556 15.785
4.06261 -0.844635 15.7853
4.0001 -0.865965 15.8073
4.06183 -0.842956 15.7694
3.99451 -0.869804 15.8017
4.1039 -0.847611 15.8315
4.1037 -0.861073 15.8406
4.10219 -0.847582 15.8317
4.10687 -0.854963 15.8305
3.86153 -0.753231 15.3639
3.85419 -0.938664 15.5326
3.853 -0.931663 15.5303
3.91084 -0.947468 15.4166
3.83337 -0.938666 15.4513
3.87515 -0.916317 15.5695
3.90078 -0.920805 15.5094
3.83525 -0.929384 15.4457
3.83243 -0.929301 15.4462
3.87867 -0.909951 15.5879
4.07152 -0.929 15.4209
4.07258 -0.926344 15.4332
3.8612 -0.911919 15.535
3.84413 -0.919108 15.4676
3.85974 -0.911092 15.5245
3.87543 -0.906665 15.5619
4.08089 -0.9246 15.4214
4.03865 -0.920959 15.4482
3.87143 -0.907441 15.5383
4.06188 -0.922023 15.4226
3.87464 -0.903033 15.5678
4.08894 -0.918623 15.4166
3.93758 -0.893129 15.6334
4.08003 -0.912443 15.4097
4.09335 -0.898769 15.5215
4.06051 -0.903479 15.4302
3.72769 -0.919985 15.1145
3.53287 -0.928375 14.9115
3.00344 -0.779844 13.1938
3.87268 -0.876667 15.615
3.86272 -0.879571 15.5467
3.86716 -0.874545 15.618
3.41773 -0.936602 13.9304
3.56683 -0.885793 15.0293
3.87975 -0.870903 15.6135
3.8708 -0.870065 15.6235
3.53018 -0.890267 14.8413
3.72202 -0.887416 15.0298
4.05089 -0.842689 15.7798
3.94886 -0.888223 15.1947
3.74238 -0.882986 15.1038
3.76066 -0.867074 15.5163
3.96554 -0.889897 15.1248
3.60229 -0.889827 14.7079
4.07653 -0.882117 15.4272
3.60168 -0.871171 15.1375
3.79487 -0.892377 14.7086
3.67472 -0.878528 14.9546
3.56727 -0.867711 15.0575
3.85641 -0.866448 15.5263
3.98604 -0.896639 14.673
3.97682 -0.882772 15.1298
3.83298 -0.886204 14.677
3.61049 -0.860348 15.2294
3.78435 -0.880199 14.5689
3.79574 -0.879393 14.6297
3.55043 -0.866613 14.6458
3.69444 -0.857915 15.3492
2.45165 -0.961126 7.11126
3.87331 -0.877564 14.7607
3.8604 -0.876993 14.7561
2.9594 -0.855806 12.73
3.80348 -0.869407 14.4731
3.76106 -0.855799 15.2907
3.84123 -0.864814 14.7483
3.51137 -0.851585 14.3176
3.38294 -0.838676 14.487
3.51729 -0.837041 13.7449
3.52436 -0.837221 13.8327
3.3786 -0.82988 13.3656
3.15494 -0.817922 12.9071
3.54816 -0.833341 14.1102
3.95698 -0.855364 15.0649
3.83809 -0.84724 14.5625
2.18224 -0.73992 10.8509
4.04451 -0.843363 15.7853
3.16787 -0.780002 13.5433
3.88458 -0.846713 15.6153
3.884 -0.846685 15.616
3.90428 -0.847989 15.6625
2.60402 -0.665477 12.3593
3.78693 -0.828168 15.3406
3.88845 -0.842867 15.6244
3.89715 -0.842743 15.6549
3.88687 -0.839839 15.6135
3.92656 -0.837676 15.673
3.99489 -0.841621 15.676
3.95431 -0.840473 15.7136
4.0464 -0.843982 15.7859
3.99741 -0.848285 15.7857
3.99495 -0.825428 15.4525
3.9727 -0.839527 15.7456
1.9022 -0.753093 9.53883
3.94976 -0.86202 15.7401
4.05216 -0.840769 15.7683
3.50243 -0.860585 14.5137
3.95435 -0.760739 15.5575
3.27962 -0.827306 13.0235
3.91884 -0.944835 15.5119
3.81353 -0.931968 15.564
3.85489 -0.923423 15.5361
3.87326 -0.917328 15.574
4.08107 -0.928029 15.4188
4.06993 -0.926625 15.429
3.74071 -0.938193 15.3154
3.86934 -0.910967 15.5319
3.87156 -0.910042 15.5391
4.07771 -0.926578 15.4134
4.04317 -0.924 15.4231
3.81249 -0.921993 15.4135
4.06788 -0.875783 15.8064
4.0509 -0.912093 15.4445
4.08945 -0.913924 15.4129
3.86575 -0.897112 15.5388
4.02896 -0.908089 15.4494
3.75492 -0.894886 15.5182
4.10662 -0.907599 15.4281
4.08393 -0.909665 15.3994
4.12872 -0.911159 15.3819
4.07514 -0.906612 15.4192
4.07737 -0.90402 15.4376
4.056 -0.904466 15.4133
3.78245 -0.91144 15.2456
4.06594 -0.900682 15.4497
4.12058 -0.897439 15.4857
4.05842 -0.898725 15.446
3.87442 -0.883728 15.5733
3.15378 -0.985181 13.6853
3.88124 -0.877465 15.6148
3.87333 -0.877058 15.617
3.87259 -0.876234 15.6288
3.86376 -0.884673 15.4838
3.88233 -0.876684 15.6148
3.88269 -0.875514 15.6205
3.70963 -0.904443 15.0369
3.87089 -0.87414 15.623
3.69434 -0.877456 15.3681
3.67237 -0.896464 14.9416
3.69441 -0.891978 15.0483
3.87168 -0.870332 15.6186
3.86068 -0.870348 15.6097
3.70307 -0.884518 15.02
3.93071 -0.89158 15.037
3.95617 -0.886391 15.1983
3.93476 -0.888289 15.1256
3.63309 -0.871097 15.1733
3.88185 -0.865994 15.6149
3.70258 -0.878055 15.0061
3.57047 -0.87052 14.9755
3.82154 -0.88844 14.5916
3.75783 -0.886672 14.544
3.553 -0.831006 14.5507
3.84721 -0.876413 14.6309
3.79045 -0.873747 14.6147
3.4376 -0.863649 14.1758
3.18933 -0.861866 13.5887
3.54093 -0.861623 14.5649
3.67924 -0.857382 15.1656
3.69189 -0.859953 14.9344
3.92476 -0.871467 14.8394
3.69707 -0.859531 14.8108
3.55016 -0.853692 14.6655
3.3027 -0.840388 13.9727
3.46752 -0.841529 14.3781
3.80675 -0.856752 14.4612
3.64656 -0.870499 14.9277
3.65579 -0.845546 14.1338
3.26975 -0.825543 13.3582
3.54332 -0.837944 14.4103
3.967 -0.856723 15.1492
3.84293 -0.848797 14.7345
3.29847 -0.814175 13.086
3.75577 -0.843995 15.2665
3.77144 -0.844987 15.3087
2.84004 -0.752891 12.716
3.735 -0.824005 14.4383
2.95495 -0.749605 12.507
3.64483 -0.827399 15.2066
3.8781 -0.84763 15.6173
3.84114 -0.831896 14.7483
4.03307 -0.851464 15.319
1.90114 -0.50624 6.04796
3.90586 -0.842353 15.6641
3.89469 -0.837165 15.6131
3.89557 -0.837983 15.6475
3.90126 -0.834186 15.6628
3.71541 -0.745151 15.2759
3.54807 -0.810225 14.5931
3.5755 -0.951456 14.9482
2.73581 -0.827055 12.1638
3.81853 -0.884796 15.5057
4.10295 -0.966087 15.4918
4.10471 -0.953763 15.4916
4.1048 -0.951698 15.4934
3.87703 -0.844427 15.6033
3.77058 -0.969946 15.521
3.91718 -0.975517 15.4682
3.65056 -0.812321 14.4732
3.75192 -0.960036 15.5117
3.92293 -0.949019 15.5213
3.86847 -0.947778 15.5078
3.81398 -0.931961 15.5642
3.86213 -0.935397 15.5262
3.85546 -0.933974 15.5344
3.83153 -0.930017 15.5425
3.80889 -0.924749 15.5735
3.75655 -0.932371 15.5122
3.82289 -0.940059 15.435
4.11324 -0.974858 15.1799
4.08849 -0.930813 15.4218
3.82985 -0.926 15.4403
3.85294 -0.91132 15.5311
4.07526 -0.927065 15.4121
4.08175 -0.92534 15.4176
4.03913 -0.921079 15.4485
4.03352 -0.919605 15.4595
