# .PCD v.6 - Point Cloud Data file format
FIELDS x y z
SIZE 4 4 4
TYPE F F F
COUNT 1 1 1
WIDTH 1873
HEIGHT 1
#VIEWPOINT 0 0 0 1 0 0 0
POINTS 1873
DATA ascii
-0.0551458 -0.625475 17.4362
0.173122 -0.836647 17.7551
1.30618 -1.12595 18.0481
0.314964 -0.750241 17.8562
0.821897 -0.70063 17.7892
0.603277 -0.69462 17.8805
1.19358 -1.2192 18.0282
0.628275 -0.9984 17.7621
1.11964 -1.18239 18.0248
1.62532 -0.724435 17.7158
1.14204 -1.1955 18.0911
1.15619 -1.18014 18.0488
0.628126 -0.70156 17.824
1.08162 -1.11735 17.9611
1.17182 -1.13972 17.9905
1.01112 -1.07704 17.8942
1.16416 -1.12508 18.1338
1.17428 -1.12933 18.1763
1.54625 -0.948314 18.0158
1.12454 -1.08824 18.0227
1.33433 -1.16995 18.3373
0.829722 -0.718109 18.0131
0.532077 -0.661032 17.562
1.19125 -1.06862 17.9087
1.0522 -1.0441 18.0435
1.65529 -1.17403 17.9375
1.10513 -1.03426 18.0805
1.12664 -1.02976 18.088
1.69185 -1.0886 17.9242
1.21297 -1.00313 18.0488
1.57127 -1.06893 18.0133
1.27245 -1.02537 18.217
1.11685 -0.980183 18.0346
0.623614 -0.664198 17.5218
1.27881 -0.998683 17.9717
1.23731 -0.98643 17.9999
3.86293 -1.50196 18.4296
0.531984 -0.66682 17.7264
2.78346 -1.23358 17.9411
0.921897 -0.915071 18.0455
0.366116 -0.795321 17.7474
3.31425 -1.28105 18.1224
0.783387 -0.858155 17.8686
1.33065 -0.934275 17.9283
1.35869 -0.93777 17.9172
1.34279 -0.934598 17.9049
1.4657 -0.945715 17.9683
3.34486 -1.21666 18.0752
0.70585 -0.674137 17.755
3.06811 -1.13641 18.2051
0.518551 -0.677431 17.8497
2.04803 -0.962802 17.8849
1.29358 -0.764611 18.1429
1.71759 -0.894527 17.9036
1.10775 -0.760837 17.8822
0.919015 -0.751081 17.9034
0.83716 -0.741722 17.8534
5.31632 -1.18878 18.2637
1.32526 -0.809268 17.9745
2.01051 -0.871557 18.1185
0.990862 -0.55422 18.3483
1.12622 -1.18046 18.1266
1.07141 -1.16075 18.1327
1.18656 -1.18084 18.0823
1.20568 -1.17984 18.0813
1.03275 -1.11144 17.9405
5.63467 -0.921306 17.8075
1.38787 -1.25203 18.4071
1.15068 -1.15317 18.1398
1.16828 -1.15825 18.139
1.37644 -1.24814 18.4386
1.12469 -1.12585 17.9885
1.17141 -1.13963 17.9901
1.13266 -1.11799 18.1362
1.58949 -1.24556 18.1503
1.0881 -1.09454 18.058
1.27782 -1.14844 18.0765
1.30673 -1.16407 18.2616
1.40178 -1.1953 18.359
2.28461 -1.3434 17.5278
1.48235 -1.20725 18.3459
2.37162 -1.35792 17.5478
2.21793 -1.29955 17.4586
1.08561 -1.06188 18.0498
1.36438 -1.13516 18.1131
2.41939 -1.34679 17.5801
2.36326 -1.32835 17.5896
2.49073 -1.4029 18.1196
1.16506 -1.06858 18.0805
1.24188 -1.06418 17.8963
1.0892 -1.03893 18.0975
2.02945 -1.19003 17.5318
1.14709 -1.01957 18.0109
2.74543 -1.33221 17.7171
1.91972 -1.1634 17.9564
1.69727 -1.11044 18.0476
1.40538 -1.07157 18.3848
1.7327 -1.11371 18.0516
2.6744 -1.2804 17.7035
3.42127 -1.4077 18.0768
2.73772 -1.25368 18.1029
2.83725 -1.2707 18.0842
2.75264 -1.25149 18.0284
1.00111 -0.931126 18.0853
1.18669 -0.959567 18.0053
2.67389 -1.23167 18.1345
0.830845 -0.883203 17.9009
1.85695 -1.06899 17.9564
0.90994 -0.866142 17.4142
0.431683 -0.802734 17.7765
1.18566 -0.937302 17.9103
2.30283 -1.13703 18.0359
2.90639 -1.21809 17.6685
2.19301 -1.1121 18.0218
1.49784 -0.964066 18.038
1.0598 -0.88464 17.9875
1.32386 -0.918333 17.881
1.15023 -0.895894 18.0677
4.78147 -1.43458 18.3052
2.74091 -1.10327 18.1039
0.374553 -0.752728 17.6622
2.60013 -1.06247 18.0288
1.93391 -0.0985159 18.4394
1.97701 -0.944936 17.86
5.44464 -1.29841 17.3866
1.39398 -0.858467 17.8901
3.32403 -1.06175 17.8093
4.26958 -1.14414 17.9958
2.01898 -0.9039 17.8875
3.06598 -0.993024 17.9957
1.37477 -0.825577 17.9116
1.41812 -0.826812 17.9371
1.50921 -0.831638 17.9461
1.67089 -0.842578 17.8255
4.31719 -1.04099 18.0715
1.10347 -0.774744 17.7339
0.877121 -0.759174 17.9335
0.355103 -0.584069 17.4597
0.706214 -0.741718 17.8577
1.13591 -0.776895 17.9556
1.07028 -0.765182 17.6792
1.25226 -0.769281 17.9549
0.877447 -0.740848 17.9147
1.12276 -0.751444 17.9528
2.19608 -0.795952 17.9002
1.65306 -0.764167 17.9899
4.10303 -0.891704 18.0552
0.64193 -0.699635 17.8519
2.24473 -0.766601 17.7905
0.611867 -0.694019 17.8141
1.70914 -0.735247 17.7163
0.396171 -0.682573 17.8088
1.40811 -0.716672 17.6899
0.997196 -0.691636 17.61
0.596797 -0.666591 17.5406
0.311001 -0.646232 17.3757
0.425195 -0.636558 17.533
0.309853 -0.641255 17.3561
0.361356 -0.632623 17.6305
0.513567 -0.624721 17.7107
0.512845 -0.658366 17.403
0.104338 -0.633502 17.384
0.0584377 -0.625427 17.3905
9.21246 -2.16365 18.8682
14.4662 -2.9582 18.9161
1.80271 -0.893345 17.4063
4.33228 -1.07629 17.9712
6.4541 -1.18058 18.4183
0.0428067 -0.845065 17.7664
0.19871 -0.915809 17.9582
0.0470273 -0.829882 17.7717
0.0482939 -0.824103 17.7696
0.0491327 -0.812995 17.7792
0.0473785 -0.799912 17.772
0.0523305 -0.728636 17.8101
0.052602 -0.721572 17.81
0.0483563 -0.715027 17.8063
0.0310298 -0.659049 17.7823
0.0415949 -0.659298 17.7885
-0.0194853 -0.633309 17.6782
0.0826464 -0.839661 17.6814
0.12028 -0.85044 17.7391
0.0874453 -0.816944 17.7724
0.0884738 -0.792878 17.7739
0.0527153 -0.763598 17.6817
0.161988 -0.775895 17.754
0.154462 -0.710501 17.8108
0.0888934 -0.675113 17.8055
0.0858619 -0.67009 17.802
0.083285 -0.658008 17.7905
0.0803975 -0.655525 17.7953
0.125914 -0.831139 17.6298
0.153516 -0.844248 17.69
1.06345 -0.721225 17.8675
0.123734 -0.821977 17.7017
0.0676221 -0.63928 17.6964
0.193882 -0.842135 17.7819
0.164537 -0.765253 17.7799
0.148184 -0.752361 17.7655
0.152975 -0.743836 17.7645
0.0596544 -0.634622 17.6511
0.129133 -0.735271 17.7593
0.162389 -0.736871 17.782
0.154069 -0.723667 17.8041
0.167687 -0.628326 17.5868
0.810287 -0.858547 17.6166
0.308526 -0.778107 17.7969
0.823448 -0.72175 17.8004
1.1226 -1.20361 18.0089
1.14078 -0.756463 17.9084
0.287044 -0.776371 17.7946
-0.0637338 -0.620851 17.4282
1.49374 -0.776652 18.2018
1.15204 -1.18857 18.0288
0.954769 -0.76217 17.9332
0.269851 -0.637225 17.6677
1.59712 -1.22396 18.3548
0.345733 -0.63778 17.6772
-0.0200536 -0.618578 17.4455
-0.0135172 -0.622151 17.4321
1.45249 -0.946202 17.9639
1.70247 -1.03526 18.0539
1.12227 -0.923463 17.9806
0.724806 -0.855942 17.8643
1.17927 -0.747756 18.0143
0.385972 -0.660647 17.7171
1.20664 -0.764361 17.9301
1.46829 -0.755982 17.9659
3.06494 -1.20616 18.0514
2.80966 -1.24016 18.0871
1.30304 -0.955149 17.9428
0.277623 -0.64072 17.5867
1.10894 -0.96779 18.1386
0.992887 -0.82683 17.6789
1.07693 -1.09879 17.9213
1.1262 -1.10885 17.9476
0.558454 -0.668364 17.6202
1.09165 -0.868105 18.0352
1.72531 -1.24949 18.0829
0.315682 -0.635827 17.6524
2.82151 -1.25822 18.0558
1.09512 -1.06679 18.0556
1.40058 -1.15324 18.3172
1.30145 -1.11998 18.2249
0.369944 -0.642586 17.6007
1.43963 -1.08973 17.8207
1.46586 -1.16095 18.4042
1.15272 -1.04852 18.1086
1.07849 -1.0271 18.0571
1.20811 -0.910339 17.8521
0.703743 -0.701938 17.8502
0.0240878 -0.863152 17.7632
0.0353973 -0.833897 17.6718
-0.0686361 -0.715959 17.7892
-0.0354308 -0.682883 17.7826
-0.100544 -0.651737 17.749
0.0455393 -0.85122 17.7028
0.0552652 -0.851341 17.7007
-0.0535702 -0.826059 17.7609
0.0901212 -0.869782 17.7748
0.019251 -0.811434 17.6007
-0.0135754 -0.819269 17.7556
-0.0142052 -0.810452 17.7526
-0.0123876 -0.794763 17.7612
-0.012687 -0.790879 17.759
-0.0200591 -0.734919 17.7507
0.0653512 -0.724893 17.6652
0.0926128 -0.66874 17.8915
-0.0498954 -0.643781 17.7431
-0.0583593 -0.639349 17.6575
0.0412569 -0.80766 17.5573
0.00205463 -0.751841 17.759
0.617031 -0.890503 18.2121
0.0404998 -0.662305 17.7745
0.057533 -0.66057 17.78
0.183583 -0.684095 17.7355
0.112693 -0.663357 17.7717
0.0859139 -0.807623 17.7738
0.134954 -0.67915 17.8153
0.170877 -0.660987 17.8095
0.153844 -0.716609 17.8091
0.132972 -0.711688 17.812
0.151341 -0.703294 17.8079
0.671893 -0.678359 17.8857
0.351251 -0.70752 17.8873
0.199619 -0.637304 17.6819
0.0888801 -0.643605 17.6962
0.13383 -0.826281 17.7707
0.870439 -0.774285 18.2397
0.0689493 -0.758569 17.6654
0.369772 -0.739214 17.8893
0.146671 -0.762428 17.7707
0.358753 -0.693173 17.89
0.297466 -0.773019 17.774
0.324363 -0.708975 17.8737
0.41993 -0.684715 17.8013
0.268275 -0.876206 17.756
-0.111255 -0.614393 17.4859
-0.0876752 -0.613922 17.4822
0.232073 -0.84056 17.8034
-0.0173884 -0.618288 17.5286
0.287184 -0.77565 17.7623
0.354443 -0.637852 17.7358
0.807826 -0.86568 17.8763
0.236675 -0.63534 17.6498
0.220935 -0.642339 17.5886
0.00909512 -0.611725 17.4887
1.4096 -1.15526 18.327
0.781532 -0.678808 17.8535
1.04823 -0.683949 17.9301
0.725383 -0.671462 17.8687
0.273495 -0.63613 17.6398
1.50254 -0.777108 18.3707
0.236165 -0.638454 17.5936
0.201377 -0.621492 17.613
0.447105 -0.676575 17.8552
0.453889 -0.665231 17.8508
1.28624 -1.24222 18.219
1.31645 -1.24292 18.3739
1.31221 -1.23341 18.367
1.29866 -1.20913 18.3144
1.1257 -1.13332 18.1376
1.15162 -1.14069 18.1353
1.3407 -1.18635 18.3767
1.40075 -1.16437 18.3814
1.19355 -1.08006 18.0616
1.04401 -0.914172 17.8133
0.781438 -0.868878 17.8815
0.285926 -0.633928 17.6255
1.21449 -0.747411 18.2382
1.16875 -0.743129 18.1273
0.836866 -0.711582 17.8464
0.640722 -0.684815 17.8305
1.15307 -1.17047 18.0755
0.561511 -0.663863 17.5758
1.13251 -1.06248 18.0739
1.22403 -1.04065 18.0971
0.763755 -0.88346 17.8725
1.86236 -0.873442 17.9499
3.46249 -0.970493 17.9113
6.34241 -1.18801 18.3428
0.847212 -0.752476 17.9274
0.362845 -0.641051 17.5274
0.6197 -0.653838 17.4926
7.01514 -1.08541 17.9206
0.432325 -0.657356 17.3634
1.50025 -0.765947 18.0175
0.54766 -0.657329 17.4024
1.09505 -0.659885 17.348
1.31392 -0.745085 17.8046
0.461415 -0.658686 17.4326
1.0562 -0.731024 17.929
1.09289 -1.1061 17.9625
1.09971 -1.10724 17.9842
2.24237 -1.35755 17.4548
1.9912 -1.35247 18.186
2.01093 -0.931455 17.3064
1.24255 -1.11881 18.0547
2.09794 -1.29033 17.5166
1.72859 -1.23524 18.0366
0.583677 -0.668614 17.4426
0.803801 -0.671745 17.4884
1.1752 -1.06141 17.9006
1.76638 -1.20259 17.9472
2.20525 -1.2812 17.5913
0.932447 -0.948093 17.3856
1.27837 -1.05476 17.7843
1.83414 -1.14205 17.4734
1.53742 -0.770508 17.9474
2.20458 -1.21554 17.6372
2.30698 -1.2191 17.6587
0.987383 -0.683614 17.4467
0.356735 -0.788461 17.4764
1.81203 -1.09079 17.5697
1.35132 -1.02032 17.9614
1.92387 -1.14303 18.1228
1.52789 -0.771512 18.028
1.32184 -0.993495 17.9058
1.26751 -0.9719 17.8866
2.78913 -1.26174 17.9603
3.18002 -1.32329 18.113
1.36494 -0.980334 17.9524
0.958142 -0.683214 17.4792
1.17327 -0.708082 17.3229
1.07435 -0.710699 17.8438
3.39544 -1.33524 18.0387
3.24934 -1.30548 17.9706
3.25568 -1.30108 17.9989
3.34374 -1.30871 17.9942
2.38188 -1.12152 17.62
3.31784 -1.29627 17.9828
1.69534 -1.0164 18.0543
1.50561 -0.967692 18.02
1.51257 -0.960866 18.0149
0.938767 -0.833269 17.3587
2.58827 -1.11264 18.0851
1.47125 -0.908386 17.3916
1.31913 -0.881201 17.3537
0.746726 -0.809641 17.7568
2.75116 -1.0601 17.3705
1.43697 -0.903704 17.9032
4.47753 -1.31466 18.0524
2.94524 -1.06878 17.9927
1.77155 -0.919488 17.9283
2.30082 -0.94145 17.2702
47.3534 -4.44305 18.7494
2.67118 -0.99641 17.9154
1.78344 -0.886657 17.9276
2.2123 -0.901241 17.3442
0.385005 -0.634989 17.5581
1.91734 -0.876871 17.895
3.48898 -1.01598 18.0947
1.56712 -0.829702 17.9343
2.45316 -0.888603 17.5078
1.57595 -0.819771 17.968
0.785515 -0.699901 17.8205
5.4722 -1.13135 18.2886
1.14698 -0.762486 17.9135
0.124039 -0.633928 17.3768
1.17116 -1.13809 18.1426
1.08435 -1.10539 18.0682
1.19397 -1.12675 18.0664
1.17096 -0.958067 18.0541
0.834444 -0.718147 17.9303
0.44359 -0.633817 17.6491
1.0922 -1.10492 17.9587
0.90338 -0.992944 17.3773
1.29367 -1.03937 18.0312
1.36346 -1.04372 18.0632
1.16257 -0.990663 18.0223
1.35274 -1.03106 18.0617
1.55096 -1.07852 18.1416
1.10994 -0.945261 17.9815
2.3463 -0.920093 17.9461
1.08457 -0.751897 17.9379
0.446262 -0.526602 17.3388
0.302968 -0.64462 17.3735
0.311422 -0.644384 17.3946
2.51637 -0.910045 17.2648
1.2639 -0.709677 17.3671
0.33516 -0.643662 17.4246
0.724002 -0.543859 17.4737
1.61971 -1.19246 17.6968
2.14423 -1.31684 17.4974
0.59449 -0.87203 17.3212
0.245059 -0.639097 17.3442
2.13047 -1.26952 17.5544
1.23991 -1.04093 17.9033
0.719135 -0.870783 17.3469
0.334165 -0.64444 17.3105
2.21251 -1.21705 17.6363
0.339126 -0.649474 17.3595
0.781365 -0.666026 17.3124
0.903462 -0.686241 17.2007
1.89338 -1.14166 17.9531
2.21535 -1.18445 17.6603
1.67904 -1.08159 17.9225
1.27515 -0.988116 17.9392
2.22697 -1.16712 17.6621
0.543921 -0.806052 17.3429
1.74939 -1.07493 17.9078
2.7872 -1.28023 17.9801
1.44576 -0.712356 17.3476
1.32038 -0.98007 17.9217
1.93517 -1.10283 17.9876
0.577947 -0.805432 17.3423
2.70444 -1.25334 18.1276
3.01126 -1.30535 18.1245
3.01787 -1.2955 18.1721
2.83103 -1.23279 17.9959
3.39035 -1.3205 18.0361
1.72571 -1.02105 18.0708
1.37201 -0.935408 17.9014
2.95602 -1.19795 18.0357
1.79918 -0.737631 17.2526
1.45426 -0.931019 17.9795
2.69145 -1.11439 17.9326
2.99693 -1.13184 17.8868
1.36964 -0.868273 17.3142
2.04157 -0.966788 17.8472
4.02049 -1.2334 18.0998
1.44546 -0.882524 17.9414
2.37208 -0.96026 17.0783
1.46464 -0.873287 17.9134
2.11067 -0.939468 17.9046
3.30408 -1.07294 17.8369
2.33948 -0.960729 17.9186
2.03423 -0.916496 17.8954
3.14958 -1.02707 18.0195
8.87696 -1.62839 18.2218
1.97301 -0.895417 17.8675
0.326738 -0.643014 17.48
2.59036 -0.933314 17.9919
4.4314 -1.0965 18.1111
1.55822 -0.826165 17.9528
4.88839 -1.11039 18.2562
7.88713 -1.35279 17.9304
1.50212 -0.810301 17.9442
3.19254 -0.948251 18.0492
2.05071 -0.837698 17.342
1.42379 -0.756403 17.9684
26.2922 -2.60629 18.9941
1.91736 -0.800459 17.2752
19.3433 -1.9773 18.5663
4.83946 -0.947539 18.1112
3.13915 -0.854847 17.1683
6.01992 -1.02575 17.6258
1.53564 -0.769056 17.9453
1.89669 -0.790196 17.9866
0.997511 -0.723564 17.2471
1.16145 -1.09593 18.0196
1.43338 -1.06174 18.0903
1.15574 -0.948465 18.0145
0.778653 -0.727818 17.7811
0.137987 -0.619225 17.3879
0.793808 -0.703676 17.8247
0.532768 -0.85491 17.321
2.01172 -1.28893 17.4793
1.27505 -1.08108 17.9303
0.132485 -0.631377 17.3784
1.10688 -0.8883 17.2449
1.20201 -0.856632 17.2768
1.3366 -0.809801 17.9578
0.977089 -0.758662 17.3331
1.63939 -0.776886 17.3162
1.26017 -0.731461 17.8477
1.92289 -1.3568 18.1621
1.954 -1.35335 18.17
39.4096 -7.05835 22.6264
47.5465 -7.95688 23.1579
0.315571 -0.648306 17.3406
2.20219 -1.31763 17.5222
0.344047 -0.648008 17.3887
2.19944 -1.29675 17.5089
0.860469 -0.921646 17.4088
2.21537 -1.26688 17.5881
2.0634 -1.22367 17.9833
1.56192 -1.09566 17.9717
2.24936 -1.23903 17.6434
0.583266 -0.656371 17.3823
1.02623 -0.925821 17.445
0.582182 -0.82181 17.3529
1.95926 -1.1313 17.9761
2.10909 -1.1632 17.988
2.12702 -1.14915 17.6431
0.909888 -0.8823 17.3965
0.333031 -0.616365 17.3253
1.69207 -0.725651 17.8194
0.900109 -0.856382 17.2541
2.61855 -1.22378 18.1206
2.85645 -1.25194 17.896
2.55908 -1.18207 17.6095
2.42274 -1.15383 17.6665
0.619587 -0.656499 17.3162
0.814169 -0.83873 17.3898
3.59939 -1.37714 18.075
3.15167 -1.27263 18.0288
2.62036 -1.14652 17.6967
0.290825 -0.642526 17.3597
1.75264 -0.986045 17.9475
3.23016 -1.22587 18.0932
2.68857 -1.13687 18.1529
1.43615 -0.930397 17.974
1.16541 -0.857147 17.3562
0.941147 -0.822448 17.3828
0.626196 -0.656717 17.3327
2.74417 -1.09373 17.6349
0.757569 -0.670555 17.4596
2.58986 -1.07406 17.9813
1.04187 -0.827609 17.3192
2.70853 -1.08905 18.0836
1.05822 -0.683255 17.5054
3.55999 -1.17872 17.9237
1.47998 -0.725535 17.9387
5.74406 -1.4339 17.9034
2.04897 -0.931981 17.3485
0.808797 -0.783265 17.5245
2.21823 -0.94178 17.3041
1.98502 -0.933609 17.9601
4.17584 -1.18451 17.7753
2.21244 -0.95326 17.9005
2.32759 -0.937187 17.0896
1.91788 -0.916802 17.9537
5.2436 -1.30049 18.1204
2.22919 -0.928522 17.2954
1.48702 -0.864269 17.9501
0.995227 -0.684021 17.4757
1.48869 -0.849668 17.9235
1.88308 -0.892031 17.9688
2.31584 -0.909676 17.1763
1.0458 -0.779124 17.2019
1.81716 -0.877276 17.8569
4.04511 -1.08457 17.3034
1.04371 -0.772097 17.2066
1.46568 -0.833156 17.909
0.934251 -0.67986 17.2152
2.00712 -0.861297 17.8756
2.62067 -0.902228 17.5099
4.0849 -1.02041 17.567
9.1475 -1.41771 18.6259
9.63648 -1.3963 17.9754
2.17738 -0.828635 17.4116
1.49506 -0.791548 17.9298
4.83333 -1.00318 17.9598
17.0304 -1.81134 18.4132
0.885963 -0.683912 17.2619
2.12342 -0.820175 17.9045
1.89099 -0.788252 17.2805
1.49748 -0.777867 17.9308
7.56594 -1.12835 18.3224
2.40605 -0.82129 18.0715
10.4499 -1.28553 18.8497
0.32582 -0.643691 17.365
1.54448 -0.769227 18.036
1.49342 -0.764279 17.95
2.0898 -0.795068 17.9147
0.315943 -0.646239 17.3168
2.18067 -0.770708 17.3262
1.21905 -0.695266 17.4367
1.87117 -0.756097 18.0042
2.42183 -0.774098 17.8547
0.281997 -0.649331 17.3395
1.00707 -0.698047 17.2647
1.36959 -1.28045 18.3894
1.31953 -1.25592 18.345
1.06488 -1.14761 18.123
0.995842 -1.10733 17.9402
1.24882 -1.22059 18.2918
1.13729 -1.166 18.1336
1.31303 -1.24148 18.3676
1.32548 -1.23566 18.3409
1.41576 -1.20576 18.3698
1.28705 -1.15457 18.323
1.36403 -1.15841 18.3333
1.19004 -0.988822 18.176
0.78446 -0.709564 18.0023
0.737111 -0.694061 17.9737
0.451309 -0.668099 17.777
1.19434 -1.18498 18.0725
1.09839 -1.1412 17.9748
1.13334 -1.14565 18.0635
1.16042 -1.14575 18.0745
1.1796 -1.15194 18.1477
1.18685 -1.14359 18.1383
1.11713 -1.10925 18.0896
1.52687 -1.22933 18.1373
0.786313 -0.687694 17.4978
0.989413 -0.707874 17.8543
1.13551 -1.08767 18.0263
1.17838 -1.07638 18.0508
1.15292 -1.0127 18.1249
1.1487 -1.01138 18.1192
1.70968 -1.0982 17.9214
0.826617 -0.865348 17.8863
2.69882 -0.955014 18.1052
0.309825 -0.684752 17.3429
0.22767 -0.650455 17.3627
0.110548 -0.63204 17.3829
1.23855 -0.744627 18.026
1.12879 -1.11901 17.9552
0.673842 -0.927909 17.3754
0.634468 -0.914852 17.3823
0.730703 -0.938245 17.3818
1.17933 -1.10008 18.0288
1.15294 -0.980575 18.0124
1.22065 -0.95827 17.9925
1.16084 -0.846716 17.3011
0.696494 -0.780685 17.7268
0.800658 -0.785062 17.8077
1.78489 -0.857432 17.3461
1.92384 -0.918281 17.9585
0.342502 -0.641268 17.4774
2.00825 -1.2816 18.0746
1.33651 -1.06618 17.9579
0.620387 -0.809393 17.2945
0.95601 -0.862519 17.2847
1.251 -0.948443 17.9471
1.65093 -0.990531 18.0965
1.78847 -0.844768 17.3041
2.00611 -0.986546 17.4025
0.329151 -0.646425 17.3608
2.57358 -0.94302 17.9103
1.48533 -0.752686 17.9787
0.218465 -0.640476 17.3935
1.97564 -1.37326 18.1824
389.427 -26.2216 33.3784
1.95271 -1.27279 17.4643
1.42272 -0.925469 17.945
4.40323 -1.01017 18.0577
1.38785 -0.920711 17.9533
6.73993 -1.21517 17.808
10.5454 -1.5507 17.6029
1.59298 -1.02551 18.0338
2.75757 -1.24433 18.1373
20.5295 -2.35624 18.5095
3.16154 -1.30529 18.1606
2.28736 -0.754546 17.5533
2.39476 -0.776306 17.6887
2.3233 -1.13279 17.6565
2.30119 -0.920285 17.2416
3.48587 -0.831942 17.7573
2.32224 -1.1145 17.6086
0.58025 -0.657491 17.3772
3.01351 -1.29232 18.1582
1.65938 -0.830937 17.2493
2.92747 -1.25512 18.0098
2.22677 -0.928647 17.3
1.5208 -0.757502 17.9434
3.10085 -1.24114 17.9411
1.70431 -0.966184 17.9283
2.87961 -1.04508 17.9767
2.55774 -0.983684 17.2051
2.01823 -0.930513 17.2773
2.09108 -0.805603 17.9306
1.91249 -0.94498 17.868
0.606717 -0.810827 17.3364
8.1866 -1.20348 18.2004
3.03541 -1.31841 18.1835
5.42926 -1.05583 18.3013
2.82114 -1.2875 18.0178
6.70778 -1.17143 18.3942
1.74992 -1.0849 17.9087
1.91886 -0.952944 17.9349
3.2533 -1.27376 17.9407
1.64231 -0.987501 17.9019
2.15019 -1.17599 18.0017
1.76095 -1.16781 17.9156
2.54563 -1.10249 18.0707
0.868655 -0.911541 17.4019
2.29904 -0.771139 17.6243
1.7576 -0.945517 17.9484
1.68713 -1.10221 17.9307
1.0884 -0.773221 17.2828
0.287702 -0.64294 17.3574
0.258557 -0.64161 17.3936
1.03917 -0.837844 17.3494
0.610126 -0.829333 17.3399
1.64904 -1.10051 18.0125
0.936904 -0.854846 17.2708
3.10219 -1.19649 17.9394
0.51423 -0.652457 17.364
5.56422 -1.57291 18.2749
2.33788 -1.02472 17.9444
1.4347 -0.847739 17.9161
1.48486 -0.822824 17.9482
0.292187 -0.643889 17.3585
0.28636 -0.644548 17.3668
1.44409 -0.793116 17.9091
5.51323 -1.07445 18.2924
2.31396 -1.33658 17.5511
2.27356 -1.30153 17.5531
2.21819 -1.28185 17.553
1.72518 -1.15071 17.9205
0.804877 -0.669394 17.5694
0.808679 -0.872668 17.3558
0.57369 -0.663469 17.236
2.31062 -1.23338 17.6271
2.28416 -1.20427 17.6474
0.804805 -0.853702 17.3692
0.855008 -0.85695 17.3178
0.897997 -0.856526 17.2723
1.74524 -1.06349 17.933
2.42663 -1.16924 17.6193
1.04658 -0.679837 17.3367
2.89412 -1.27265 17.9495
0.881734 -0.840168 17.271
3.04593 -1.30175 18.1942
0.884103 -0.828047 17.1625
2.21136 -1.09355 17.6108
2.68568 -1.18185 17.9734
2.34189 -1.10599 17.672
0.853997 -0.820182 17.2643
2.50338 -1.12503 17.6837
3.03941 -1.20406 17.9091
2.39129 -1.08133 17.5947
1.00727 -0.688376 17.4779
1.14818 -0.692322 17.5258
0.885586 -0.682474 17.2578
3.87849 -1.29173 17.9995
2.55274 -1.08048 18.0379
4.02283 -1.29596 17.976
0.812109 -0.783141 17.1718
4.10357 -1.30143 18.0209
2.56848 -1.0528 17.4881
0.644024 -0.653897 17.3543
1.29548 -0.701551 17.5669
2.01123 -0.959473 17.8886
2.13254 -0.948599 17.3727
2.01631 -0.929222 17.2748
2.41343 -0.967322 17.3049
3.75858 -1.15324 17.9316
2.1861 -0.934511 17.3019
3.0763 -1.06757 18.0241
0.87143 -0.686832 17.1859
1.0288 -0.784781 17.2002
3.17684 -1.03461 17.5834
1.77168 -0.86265 17.2286
1.41117 -0.712846 17.487
1.86586 -0.860687 17.2042
0.81931 -0.748627 17.1686
2.07572 -0.902108 17.8779
2.09492 -0.882165 17.3463
0.819153 -0.745504 17.175
1.94359 -0.882233 17.9201
4.3027 -1.08211 17.6141
1.04464 -0.756755 17.2049
0.639986 -0.655536 17.4038
1.94685 -0.747993 17.2616
1.96338 -0.749766 17.2909
2.24242 -0.844802 17.3038
4.93518 -1.08334 18.2034
2.01416 -0.819939 17.2363
3.02964 -0.807953 17.4684
2.04527 -0.836017 17.9133
3.47154 -0.92995 18.0934
1.14313 -0.716334 17.2055
5.50874 -1.06954 18.1726
2.61807 -0.812177 17.9371
3.40904 -0.900685 17.9931
2.38391 -0.810941 17.403
6.73579 -1.0844 18.2228
1.04851 -0.722523 17.2017
2.68187 -0.838189 17.9557
1.98642 -0.766115 17.2666
0.771637 -0.700815 17.1695
3.77062 -0.867594 17.5592
0.792041 -0.872333 17.3168
0.591189 -0.809085 17.2459
0.67622 -0.836755 17.3584
0.725561 -0.757924 17.1705
0.577516 -0.7086 17.2374
0.568177 -0.677332 17.2357
0.562284 -0.660128 17.2342
3.18579 -0.880206 17.4878
0.632955 -0.639987 17.3763
2.15478 -1.28734 17.5359
2.14676 -1.28447 17.5235
0.563464 -0.650688 17.3271
1.7093 -1.15209 17.9213
0.900032 -0.889374 17.4076
2.004 -1.18802 17.9558
0.931136 -0.88267 17.3037
1.92967 -1.16472 17.9537
0.920987 -0.875767 17.276
0.828944 -0.846356 17.238
0.908831 -0.866235 17.2747
2.26551 -1.20124 17.6477
0.572004 -0.650677 17.313
2.23247 -1.17521 17.6275
2.13039 -1.12978 17.4839
0.830312 -0.8281 17.2345
2.83607 -1.28617 18.0398
1.86388 -1.06073 17.934
3.01185 -1.31099 18.1683
2.99384 -1.30228 18.0291
3.07723 -1.30533 18.135
0.921486 -0.833979 17.3664
3.44796 -1.35816 18.0638
2.43403 -1.13425 17.6859
3.2394 -1.28983 18.0267
2.51435 -1.12529 17.6837
0.985352 -0.820097 17.1978
2.57352 -1.1257 18.1104
1.68895 -0.962004 17.9146
8.99144 -2.25152 18.939
2.28891 -1.04383 17.2929
2.4206 -1.0559 17.2579
2.7535 -1.10434 17.041
3.45502 -1.23936 17.7518
2.16851 -1.01335 17.3719
2.87884 -1.13486 17.9844
4.29635 -1.3563 18.1
2.48117 -1.04 17.4816
1.67458 -0.927556 17.9101
27.7565 -4.96829 20.7244
0.868335 -0.779289 17.1721
0.633045 -0.652916 17.3011
2.55469 -1.03576 17.4622
3.08677 -1.10451 17.1763
2.216 -0.99631 17.9013
2.43325 -1.02686 17.8717
2.38744 -1.00443 17.3995
2.39653 -1.00734 18.0053
0.880618 -0.77233 17.1804
1.9602 -0.941993 17.9503
1.97068 -0.94007 17.8497
2.0855 -0.936316 17.2687
2.39374 -0.978514 17.4265
2.07568 -0.924275 17.1841
2.61618 -1.00056 17.971
2.03868 -0.902147 17.1299
2.65317 -0.999731 17.9654
4.6195 -1.23931 18.0391
2.10859 -0.912228 17.2987
1.50981 -0.837008 17.2071
2.06588 -0.902708 17.2855
0.890887 -0.762604 17.2615
1.05419 -0.772272 17.193
1.71251 -0.843394 17.244
2.01134 -0.888411 17.8725
1.05092 -0.766368 17.1938
3.39299 -1.01158 18.0538
4.02652 -1.07286 18.066
2.20277 -0.87498 17.3604
1.9422 -0.862276 17.8614
2.47248 -0.913433 17.9013
8.72617 -1.43715 18.079
3.94218 -1.00965 17.559
2.24572 -0.851781 17.3124
0.517897 -0.661686 17.3779
4.61298 -1.03236 17.6107
0.950739 -0.73417 17.1845
3.07517 -0.919205 18.0055
1.90483 -0.81005 17.3525
2.22449 -0.833655 17.3335
2.29284 -0.848173 17.9118
0.892477 -0.72619 17.2698
2.27229 -0.837912 17.911
1.92291 -0.801635 17.8574
2.25867 -0.805634 17.3216
2.88122 -0.83883 17.5189
1.05139 -0.720322 17.2024
3.2873 -0.849866 17.9556
1.83102 -0.760389 17.3774
1.92515 -0.762035 17.3985
1.12894 -0.718638 17.2092
3.0318 -0.82065 17.9927
2.65179 -0.788009 17.6287
2.45655 -0.766524 17.4971
2.02619 -0.748442 17.5535
1.04369 -0.701677 17.2062
2.14072 -0.739511 17.3953
1.88698 -0.729937 17.3383
1.45647 -0.713187 17.2249
0.636729 -0.657492 17.3262
1.75583 -0.719957 17.251
1.3507 -0.709172 17.4459
1.59647 -0.711461 17.3186
1.31721 -0.701714 17.385
1.13001 -0.690306 17.4037
0.66783 -0.664292 17.3404
0.991613 -0.686362 17.5061
1.03738 -0.684012 17.4162
0.970046 -0.677833 17.2218
1.04084 -0.679909 17.3384
0.879219 -0.675501 17.2647
1.02225 -0.675464 17.3121
0.924281 -0.670281 17.3548
0.919689 -0.669578 17.3294
0.531856 -0.799312 17.3449
1.46463 -0.88064 17.9214
1.4726 -0.878983 17.9274
0.728348 -0.746826 17.161
1.40627 -0.837805 17.8774
1.53716 -0.839435 17.9539
0.711376 -0.676533 17.1712
0.543215 -0.655837 17.2344
0.551905 -0.655423 17.2275
0.556752 -0.653232 17.2234
0.323586 -0.644017 17.3693
1.68095 -1.19444 17.9383
0.753453 -0.861123 17.162
0.794877 -0.868945 17.3634
0.801051 -0.816215 17.2789
0.582303 -0.763968 17.2419
0.584093 -0.760091 17.2417
0.725004 -0.6847 17.1741
2.07476 -0.741117 18.1385
1.77423 -1.11215 17.9389
0.796036 -0.843908 17.1695
0.789425 -0.840994 17.1741
0.872017 -0.853647 17.2851
0.795579 -0.667221 17.1609
1.14914 -0.692243 17.2082
2.89045 -1.25839 18.1689
0.787129 -0.677965 17.5291
0.818234 -0.74583 17.1671
1.80145 -0.833963 17.9595
1.14156 -0.718099 17.2085
1.88154 -0.75839 17.9738
1.02849 -0.685494 17.5006
1.10102 -0.681097 17.3019
0.921934 -0.681726 17.1934
2.36787 -1.32934 17.5734
0.564908 -0.662315 17.3636
1.00715 -0.690594 17.4829
0.919805 -0.691898 17.1903
2.4068 -1.27578 17.6606
0.942075 -0.692617 17.1939
1.39859 -0.713041 17.4817
2.01555 -0.748103 17.8496
1.97635 -0.740936 17.3401
2.36248 -0.782553 17.3295
2.06753 -0.775293 17.2882
2.52342 -0.77635 17.5493
0.968772 -0.86113 17.1882
2.99842 -1.31781 18.2105
3.01388 -1.31361 18.1742
0.977965 -0.85391 17.1902
3.08146 -1.30716 18.1274
3.10012 -1.31045 18.1142
3.05922 -1.29001 17.9452
2.41377 -1.15139 17.6643
1.04771 -0.72128 17.1944
2.27404 -0.800494 17.3219
0.823471 -0.819569 17.3794
2.8343 -1.21934 18.0275
1.29115 -0.704549 17.4631
0.899193 -0.825921 17.3872
2.99771 -1.21527 17.8943
1.04148 -0.69379 17.2073
2.87546 -1.17392 18.0052
2.4835 -1.09363 18.0548
2.6232 -1.0972 17.6333
13.8605 -2.91183 18.9924
2.57599 -1.08577 17.9873
2.47374 -1.06647 18.0382
2.59577 -1.07888 18.0024
2.58105 -1.04827 17.4545
2.49677 -1.04851 17.9969
2.38495 -1.01527 17.4792
2.66417 -1.04982 17.2878
1.9484 -0.956309 17.8661
0.90483 -0.670439 17.2906
1.0483 -0.733497 17.205
2.92161 -1.0735 17.9449
0.903335 -0.779877 17.2652
0.875519 -0.773636 17.1846
2.98771 -1.07218 18.0043
2.03125 -0.913064 17.282
2.64461 -1.00478 17.9553
1.78793 -0.877845 17.2302
0.947936 -0.67607 17.2331
1.99775 -0.902954 17.3428
2.41667 -0.961162 17.9128
2.56066 -0.977915 17.9168
1.02137 -0.67829 17.2979
1.93784 -0.892864 17.8682
1.03205 -0.771048 17.1918
1.52634 -0.821857 17.2156
3.40954 -0.913957 17.5415
0.97813 -0.682105 17.4601
2.0425 -0.865616 17.264
0.891485 -0.749727 17.2612
7.78426 -1.43337 18.2578
2.18051 -0.873651 17.3622
4.98679 -1.11708 17.9263
2.01213 -0.841029 17.3369
2.26685 -0.859575 17.3668
2.0587 -0.819639 17.2987
4.88504 -1.07119 17.673
9.92759 -1.45452 18.2228
4.74193 -1.04079 17.6825
2.99807 -0.900404 17.4575
1.96916 -1.19759 17.9584
0.796997 -0.829748 17.3505
3.04355 -1.28577 18.2124
1.94935 -0.978055 17.9429
0.869154 -0.777048 17.17
0.878542 -0.772703 17.1811
0.848042 -0.681394 17.1963
0.926724 -0.669437 17.3603
5.17907 -1.10701 17.8204
0.941142 -0.675308 17.3856
0.937648 -0.672245 17.2834
0.983387 -0.67489 17.3442
2.35274 -1.24876 17.6194
0.948001 -0.858223 17.1695
2.39952 -1.23993 17.6378
0.96062 -0.856289 17.1833
3.26425 -1.36034 18.3536
3.44621 -1.37135 18.0478
3.45873 -1.37675 18.3691
0.895359 -0.674265 17.247
2.42934 -1.13423 17.549
3.09494 -1.26766 18.017
2.99235 -1.2423 18.2342
2.61199 -1.15044 18.1318
1.09767 -0.83414 17.1944
2.87765 -1.15173 16.9948
2.49529 -1.10976 18.1198
0.984909 -0.810599 17.3137
4.3791 -1.40777 18.0532
2.50525 -1.07406 17.6175
2.58706 -1.0793 17.4797
2.72072 -1.08965 17.2313
0.950368 -0.675373 17.2112
2.93521 -1.14248 17.998
2.53899 -1.05242 17.4736
2.99922 -1.13601 17.9873
2.97309 -1.12202 18.0283
1.01655 -0.677584 17.2971
2.94817 -1.11311 18.0429
2.49258 -1.01702 17.4509
2.1901 -0.968552 17.333
2.16368 -0.953808 17.0967
5.43894 -1.45164 18.0441
2.39288 -0.993649 17.4557
4.15791 -1.25434 17.9073
1.96997 -0.937883 17.876
3.50886 -1.14648 17.6126
0.89393 -0.768469 17.2595
2.20156 -0.963289 17.9006
2.98641 -1.07339 18.0014
4.61123 -1.28786 18.0541
4.34717 -1.23312 17.6839
0.894791 -0.762218 17.2596
2.66095 -1.00833 17.963
2.55068 -0.988467 17.927
3.84212 -1.15801 18.1462
2.34417 -0.941519 17.3633
2.85904 -0.984765 17.5561
9.78027 -1.77943 18.3985
1.03632 -0.761567 17.195
10.6217 -1.789 18.3923
6.27419 -1.30932 17.8484
2.04513 -0.862079 17.2804
1.92045 -0.863411 17.8658
4.12054 -1.07273 18.0545
1.96381 -0.857602 17.8726
2.1048 -0.848433 17.2462
5.36474 -1.13938 17.6901
3.20778 -0.955933 18.0675
6.50029 -1.22994 17.8214
3.27724 -0.94364 17.4557
2.03839 -0.834722 17.353
1.04415 -0.740347 17.1955
3.98991 -0.982406 17.9833
2.28298 -0.847797 17.9142
2.21743 -0.824969 17.3108
5.28027 -1.06348 18.129
11.3601 -1.46785 18.6888
3.2681 -0.891084 17.9687
1.99161 -0.792333 17.3579
2.8946 -0.863441 18.0098
2.05611 -0.805112 17.891
2.95276 -0.860123 17.9625
1.03105 -0.685832 17.47
3.03053 -0.850008 17.4721
1.05325 -0.725135 17.1955
2.23194 -0.80827 17.9162
8.40582 -1.13461 17.4979
1.04841 -0.721901 17.2027
1.08067 -0.683521 17.3433
1.9767 -0.765067 17.2901
1.72107 -0.748426 17.2494
2.12019 -0.768721 17.4289
2.13754 -0.76693 17.3435
2.06878 -0.756273 17.3344
2.72195 -0.781124 17.4434
2.12796 -0.741834 17.4015
1.62348 -0.729168 17.5823
1.69071 -0.72368 17.4326
1.64198 -0.720028 17.3543
1.82235 -0.724457 17.3431
0.879427 -0.694843 17.1874
1.76699 -0.720769 17.37
1.68652 -0.718153 17.3484
1.42498 -0.70896 17.4876
1.09673 -0.691109 17.4279
1.10666 -0.690124 17.3934
1.01408 -0.682846 17.2715
1.21311 -0.948311 17.9242
1.54192 -0.767233 18.0983
1.93038 -1.35199 18.1524
0.277716 -0.642007 17.3159
2.18086 -1.07882 17.9541
4.42582 -1.37512 18.0954
0.29417 -0.642907 17.3767
0.328308 -0.645957 17.3766
1.34365 -0.770677 17.9363
1.47757 -0.756654 17.9648
0.488842 -0.661013 17.4875
1.44431 -0.928647 17.9206
1.82633 -0.723255 17.4829
0.73472 -0.758439 17.1561
1.68296 -1.11233 17.9219
0.87432 -0.850665 17.2831
0.55625 -0.657847 17.3873
2.85924 -1.00114 17.5436
2.03528 -0.784307 18.0114
2.28662 -1.33786 17.5336
1.73498 -1.12491 17.9273
0.62792 -0.655681 17.331
1.86371 -0.918407 17.9719
1.93456 -0.876334 17.9868
0.592086 -0.656656 17.4124
1.76171 -0.736799 17.2434
1.96233 -1.19664 17.9394
1.8869 -1.08211 17.9399
1.99977 -0.894447 17.956
2.51421 -1.05156 18.0225
2.0668 -0.973329 17.8436
0.859183 -0.781999 17.1713
0.626154 -0.653898 17.3152
0.896065 -0.767289 17.17
2.60453 -0.884242 17.2177
2.32735 -1.32575 17.5608
0.921217 -0.671749 17.3004
6.88222 -1.2743 18.1665
2.0663 -0.756317 17.3335
4.21449 -1.21445 17.9961
1.92272 -0.904401 17.8646
1.03289 -0.712056 17.1912
2.11667 -0.800364 17.2528
1.94292 -0.872923 17.8703
0.929981 -0.671918 17.3823
3.26731 -0.889338 17.9663
1.08688 -0.691391 17.4485
2.29711 -1.17774 17.6271
3.43975 -0.949719 17.5087
5.58261 -1.02868 17.5375
1.53276 -0.840223 17.2148
2.17831 -0.820805 17.3391
6.74282 -1.20696 18.1783
1.98817 -1.07765 17.6093
13.4311 -1.42584 18.7525
2.99032 -1.27092 18.005
2.43182 -1.14607 17.6833
3.04984 -1.24589 17.9308
1.25872 -0.703536 17.4615
3.38377 -1.2914 18.1098
2.52454 -1.13347 18.1082
4.08386 -1.38647 17.9475
2.43821 -1.09911 18.0172
1.21992 -0.867889 17.2674
3.63679 -0.87992 17.924
4.51039 -1.39681 18.0818
2.10334 -0.79021 17.2373
1.8709 -0.739327 17.5801
2.58504 -1.07731 18.0026
2.39974 -1.01704 17.3224
1.03706 -0.786388 17.1984
2.09275 -0.825194 17.2531
3.58655 -1.09448 17.6601
2.27491 -0.964523 17.9102
3.24925 -1.09542 17.4449
1.96221 -0.739715 17.3428
1.96247 -0.943074 17.8656
0.841023 -0.807372 17.3905
1.02069 -0.763468 17.1867
0.918809 -0.671287 17.3657
4.25585 -1.00435 17.5213
2.43718 -1.24748 17.6724
1.90286 -1.07284 17.4073
2.16681 -0.756378 17.4367
2.20965 -1.13249 17.4834
12.6966 -3.73545 19.1199
1.94701 -1.06114 17.3625
3.05849 -1.31815 17.9589
1.94312 -1.03895 17.2758
1.99251 -1.04315 17.2488
0.932658 -0.67016 17.3789
0.989403 -0.813156 17.2982
3.09053 -1.29323 18.1391
2.91857 -1.25126 17.9903
2.30329 -1.10305 17.5197
3.05344 -1.2601 18.0194
2.4999 -1.12732 18.009
2.87586 -1.18671 17.972
2.69716 -1.11889 17.0727
2.67619 -1.11123 16.9581
2.37967 -1.05915 17.2429
2.45183 -1.06359 16.949
2.87686 -1.17304 18.0052
2.37947 -1.05514 17.4942
1.01385 -0.790292 17.1956
2.71978 -1.09018 17.2124
2.57022 -1.07168 18.0002
2.32467 -1.00892 17.332
2.19441 -0.985065 17.3824
1.52291 -0.868244 17.2153
1.91726 -0.951254 17.8538
0.892615 -0.762262 17.26
2.48016 -1.01798 17.4512
2.14724 -0.958105 17.2243
3.91386 -1.24776 17.9986
2.40964 -1.00068 17.5094
2.00682 -0.946287 17.8386
1.74858 -0.884756 17.2341
2.96178 -1.07058 17.997
3.92435 -1.2073 18.0151
2.99831 -1.06371 17.9478
2.1394 -0.921594 17.2131
2.72611 -1.01818 17.9829
2.14792 -0.918564 17.2984
2.2815 -0.934748 17.3638
2.04599 -0.900815 17.272
0.970362 -0.673391 17.3955
0.889721 -0.747783 17.2604
3.53219 -1.10465 17.9208
1.97459 -0.88776 17.3508
3.24006 -1.03355 17.5859
3.10849 -1.02591 17.9893
1.99371 -0.866122 17.2974
1.90596 -0.852355 17.3613
1.52881 -0.801804 17.2107
2.16774 -0.8848 17.8985
1.98847 -0.848138 17.3461
2.02268 -0.849397 17.2814
4.39083 -1.09915 18.0988
0.94337 -0.672093 17.3887
4.56597 -1.09147 18.1159
2.19652 -0.846263 17.3093
2.11476 -0.838589 17.2962
2.02618 -0.829324 17.3493
2.23611 -0.846397 17.3184
1.96617 -0.818345 17.2708
3.81541 -0.97065 17.5691
2.2293 -0.831317 17.3226
2.0573 -0.833718 17.8815
6.79376 -1.1697 18.29
2.71743 -0.852085 17.3576
2.16811 -0.812021 17.3115
5.88325 -1.09251 18.2215
3.62765 -0.915457 17.5351
4.07189 -0.944763 17.5088
3.18176 -0.881401 17.9115
1.5315 -0.754972 17.21
0.887752 -0.717049 17.2657
3.92217 -0.915602 17.9839
2.00828 -0.798406 17.8879
0.866509 -0.672575 17.2675
3.07038 -0.85294 17.9054
2.0607 -0.772751 17.3509
3.20673 -0.825865 17.5637
1.68479 -0.745725 17.2578
1.67234 -0.743278 17.2041
1.46959 -0.734579 17.2199
2.51673 -0.802246 17.9089
2.08316 -0.76212 17.3985
1.53169 -0.732767 17.2151
2.16161 -0.75959 17.3336
2.46899 -0.773387 17.4981
2.02362 -0.736825 17.3923
1.81321 -0.725565 17.3159
1.84397 -0.725338 17.2875
1.608 -0.716711 17.3472
1.43198 -0.704484 17.2227
1.02646 -0.696438 17.1924
1.40587 -0.703191 17.3652
1.32273 -0.699579 17.3404
1.22868 -0.700295 17.4291
1.22385 -0.698947 17.4816
1.21219 -0.697256 17.4355
1.2938 -0.697555 17.4371
1.30554 -0.693423 17.3212
1.21125 -0.692576 17.3493
1.09123 -0.688092 17.3759
1.08939 -0.687606 17.3621
1.10023 -0.687152 17.3517
1.05523 -0.680718 17.2349
1.03802 -0.678176 17.2948
0.978113 -0.682851 17.4516
1.03196 -0.679249 17.3875
1.02454 -0.677975 17.3806
1.03399 -0.675466 17.3186
1.00431 -0.673819 17.3477
0.884032 -0.672928 17.2701
0.870694 -0.673111 17.2622
0.882395 -0.759933 17.1764
0.82894 -0.822094 17.3821
0.846884 -0.815936 17.2585
0.88868 -0.731059 17.1797
0.920066 -0.729459 17.1853
0.891139 -0.715178 17.2563
0.944429 -0.697313 17.1824
0.967338 -0.844475 17.1973
1.13655 -0.842902 17.185
0.89575 -0.67912 17.2674
2.18378 -0.953821 17.7983
4.24433 -1.05424 18.0601
0.874346 -0.677855 17.2564
1.19053 -0.693059 17.446
1.50578 -0.707132 17.2357
2.90431 -1.21131 17.8733
2.73286 -1.06541 17.1603
1.05215 -0.779825 17.1976
0.885665 -0.699882 17.2654
1.04521 -0.776023 17.1981
1.04096 -0.773652 17.1871
1.03433 -0.761702 17.192
1.95043 -0.863102 17.8829
1.97981 -0.836709 17.8962
1.03247 -0.708476 17.1949
0.974996 -0.672449 17.3139
2.28535 -0.764705 17.8353
2.36004 -1.27466 17.5601
2.46019 -1.28386 17.623
4.98407 -1.03582 17.839
1.02734 -0.680626 17.306
2.34451 -0.762886 17.6252
3.93679 -0.915476 17.9886
2.30485 -1.18456 17.6289
2.49135 -1.20143 17.6626
2.09459 -1.08568 17.4147
0.910241 -0.667904 17.3061
2.45245 -1.14624 17.5739
0.940015 -0.667538 17.2901
2.80798 -1.22092 17.9805
1.42218 -0.712733 17.4349
2.96562 -1.24405 18.1696
2.96984 -1.23877 17.986
2.88643 -1.22221 18.1505
1.52133 -0.726359 17.2309
3.14383 -1.25017 17.958
2.52022 -1.12109 17.9808
2.68705 -1.12205 17.0668
2.85367 -1.16967 17.9983
4.11487 -1.39347 17.9902
2.86466 -1.15682 17.8621
4.13085 -1.37281 17.979
4.26631 -1.39035 18.031
2.33143 -0.767409 17.4299
4.08083 -1.34853 17.9715
2.62815 -1.06864 17.4764
1.90655 -0.754322 17.2618
2.37773 -1.004 17.4033
2.30333 -0.985585 17.2027
2.56187 -1.02755 17.5212
1.71492 -0.884179 17.2331
1.40582 -0.711423 17.5248
2.00141 -0.94369 17.8374
2.08558 -0.936774 17.2825
4.15181 -1.2538 18.0227
1.74111 -0.882332 17.2333
3.00114 -0.860991 17.9592
2.10302 -0.928363 17.1737
1.81197 -0.750524 17.2741
3.07758 -0.823076 17.5553
2.18815 -0.779467 17.4004
1.02447 -0.679146 17.3024
3.05859 -1.0573 17.9713
2.2618 -0.933789 17.3629
2.36002 -0.961416 17.9127
1.92736 -0.901756 17.8624
2.51339 -0.976844 17.9252
2.14019 -0.777499 17.3102
3.15109 -1.02323 17.9611
1.96853 -0.855998 17.2567
4.31649 -1.12254 17.9875
2.46603 -0.923125 17.9104
2.49855 -0.827618 17.9502
1.68682 -0.814651 17.2411
4.35777 -1.08391 17.6959
2.17174 -0.856347 17.3938
1.23075 -0.698937 17.4577
4.35521 -1.07225 18.0641
3.02528 -0.945892 18.0181
2.02142 -0.737044 17.3926
2.1767 -0.83968 17.3313
1.32286 -0.700222 17.2575
1.99134 -0.819194 17.285
1.38527 -0.705587 17.3754
8.54876 -1.37132 18.2429
4.83841 -1.0577 17.72
3.52681 -0.945461 17.4966
4.14922 -1.00649 18.0372
5.09138 -1.08116 18.0845
5.9742 -1.13855 17.7761
1.9395 -0.80826 17.2789
2.88792 -0.874634 17.3699
3.77454 -0.937643 17.5073
0.890222 -0.768621 17.2658
0.890083 -0.71832 17.2673
0.893379 -0.702287 17.2663
7.67482 -1.26159 18.0585
0.904263 -0.67225 17.4209
3.80671 -1.72 17.9093
0.943462 -0.676247 17.4224
0.9748 -0.672977 17.3278
1.14919 -0.694749 17.3613
2.02039 -1.1271 17.5466
2.43028 -1.24689 17.6695
2.0956 -1.14354 17.4652
2.23078 -1.16366 17.6166
2.40876 -1.18931 17.5835
0.928664 -0.667785 17.3602
2.20812 -1.1227 17.4641
4.65963 -1.67208 16.1583
2.36685 -1.12871 17.0482
1.64781 -0.964375 17.5087
2.3132 -1.11977 17.414
2.28664 -1.11618 17.6169
4.47657 -1.57822 16.4052
5.00135 -1.69213 16.1366
1.24217 -0.698444 17.4821
2.1247 -1.05918 17.4373
1.39203 -0.697087 17.3388
0.995166 -0.648155 17.4208
2.84855 -1.22173 18.0265
2.42928 -1.11781 17.6664
2.33584 -1.08401 17.4768
2.83326 -1.17043 16.9478
2.95029 -1.2197 18.0157
2.15748 -1.03362 17.4124
2.76995 -1.14917 16.99
2.86491 -1.19827 18.0537
2.36853 -1.05066 16.8977
2.19764 -1.02637 17.3357
2.28796 -1.02444 16.923
2.65097 -1.09834 17.2489
2.42704 -1.05655 17.4196
2.73953 -1.1002 17.0473
2.68982 -1.08823 16.9689
2.44813 -1.07071 17.9707
2.46095 -1.04946 17.4752
2.75636 -1.09183 17.1043
2.21987 -0.984104 16.9294
2.93365 -1.13451 18.0092
2.26707 -0.979143 16.9401
2.45564 -1.04206 17.9847
2.01102 -0.942224 17.3532
2.30464 -0.978701 16.9441
4.5593 -1.38699 17.9832
2.31413 -0.986114 17.2312
2.35993 -0.989842 17.1102
1.75167 -0.884685 17.2333
5.7164 -1.54197 18.0723
3.13063 -1.11628 17.6639
2.50048 -1.01276 17.571
2.95799 -1.06896 17.3571
2.10092 -0.914547 16.9964
2.94804 -1.06756 17.9474
2.09401 -0.916009 17.3533
2.0709 -0.90612 17.1548
2.0563 -0.893191 17.011
2.01402 -0.89157 17.2275
2.02126 -0.890143 17.2436
3.07871 -1.05358 18.018
2.10269 -0.91629 17.8839
4.028 -1.16615 17.8208
2.02831 -0.885332 17.2487
1.94818 -0.870742 17.126
3.13197 -1.05124 18.0465
1.98552 -0.877197 17.345
2.0088 -0.879945 17.3389
2.14812 -0.893369 17.3081
3.12435 -1.02678 17.9628
2.25572 -0.904994 17.4585
2.14659 -0.884189 17.3267
4.16694 -1.12993 17.7236
3.14501 -1.01694 18.0608
2.17165 -0.87717 17.8931
5.61321 -1.20592 17.7122
5.35833 -1.17429 18.0888
2.50075 -0.89173 17.9236
2.26666 -0.849105 17.2953
2.1396 -0.835716 17.3317
3.51769 -0.977144 18.09
5.35442 -1.10351 17.7342
2.14857 -0.826066 17.3076
5.13202 -1.08836 18.092
2.02131 -0.812122 17.2911
2.06789 -0.814165 17.2423
2.00151 -0.801064 17.3529
1.36187 -0.697398 17.3462
7.2013 -1.19212 18.2547
1.52479 -0.760187 17.2167
3.03399 -0.88578 17.9461
2.0039 -0.78092 17.3536
2.13595 -0.78446 17.2375
2.39706 -0.794692 17.3125
1.79904 -0.762471 17.3055
2.45478 -0.79197 17.3648
2.03051 -0.770127 17.3396
1.72475 -0.744627 17.0437
3.31925 -0.848444 17.9148
2.34834 -0.781462 17.318
2.18486 -0.773475 17.3111
1.54977 -0.736447 17.1701
2.55529 -0.805075 17.9381
2.69623 -0.786051 17.4696
2.12672 -0.757571 17.2961
2.30205 -0.766605 17.6537
1.88871 -0.738423 17.5453
2.19665 -0.740466 17.3865
2.01559 -0.729629 17.2917
1.88259 -0.732243 17.5247
1.54996 -0.712706 17.1729
1.17835 -0.699708 17.403
1.73786 -0.721349 17.3707
1.519 -0.712258 17.2323
1.13186 -0.704176 17.2111
1.67923 -0.713612 17.2482
1.18223 -0.703271 17.1938
1.34075 -0.709003 17.4521
1.65101 -0.705457 17.3387
1.31439 -0.699463 17.2769
1.26566 -0.700977 17.4027
1.35689 -0.699753 17.3673
1.52786 -0.852291 17.2001
0.927913 -0.669512 17.4039
0.924246 -0.66628 17.3075
2.33021 -1.24759 17.5747
2.48365 -1.29459 17.657
2.49015 -1.2509 17.6737
2.36586 -1.19573 17.0434
2.37655 -1.1894 17.562
2.40127 -1.17382 17.6681
2.08524 -1.08771 17.5351
2.49312 -1.17801 17.4095
6.16702 -2.0039 15.9128
4.40871 -1.59056 16.3481
4.60974 -1.63546 16.2234
2.93812 -1.27872 17.9387
2.96348 -1.26767 18.0035
2.10809 -1.04469 17.3412
2.96792 -1.22675 17.8936
2.19794 -1.04517 17.4188
2.51717 -1.12011 17.9688
2.96683 -1.21197 17.8892
2.49408 -1.09951 17.9548
2.79808 -1.12389 17.0866
2.77908 -1.11563 16.9469
2.26648 -1.0227 17.3107
2.35941 -1.04044 17.4075
2.44599 -1.056 17.4864
2.33729 -1.01332 17.355
0.959344 -0.661292 17.3886
3.99283 -1.31466 18.0321
2.93197 -1.11904 18.0165
3.69257 -1.24169 17.792
2.21101 -0.96727 17.1455
2.24197 -0.971693 17.119
1.12487 -0.68795 17.2981
2.20896 -0.95976 16.9271
2.88595 -1.09663 17.9955
3.9388 -1.27142 18.0353
1.74819 -0.884024 17.2311
2.2091 -0.950171 17.0325
2.43805 -0.995588 17.3934
2.33056 -0.964411 17.3963
2.23813 -0.948936 17.4545
2.17635 -0.928917 17.2271
2.08537 -0.908188 17.0092
2.15088 -0.940686 17.8834
2.1755 -0.925717 17.3264
2.07398 -0.908669 17.2542
2.62404 -1.00716 17.952
2.34111 -0.948885 17.4103
3.68257 -1.15478 18.051
3.74259 -1.15369 17.7658
2.06944 -0.894066 17.0138
2.96697 -1.04161 17.9522
3.10772 -1.0586 18.0389
4.35524 -1.21834 18.0427
1.97341 -0.877698 17.3417
1.75134 -0.843152 17.2411
3.42857 -1.05933 17.6314
1.98345 -0.859434 17.3395
4.98583 -1.2018 17.7232
2.02905 -0.860565 17.3871
4.11115 -1.09989 18.0151
2.12884 -0.856467 17.3012
3.09838 -0.964914 17.987
3.56112 -0.98885 17.5447
2.55598 -0.889678 17.4434
4.35728 -1.07471 18.0616
2.46959 -0.885894 17.9032
5.52806 -1.16605 18.1263
2.15912 -0.831524 17.3066
3.56698 -0.943958 17.4447
7.03267 -1.23652 18.1738
5.29165 -1.0739 17.7168
3.45919 -0.921203 17.5408
2.3329 -0.829266 17.3188
2.35367 -0.826808 17.3049
3.32692 -0.911171 18.0143
3.32513 -0.909075 17.9572
2.29848 -0.813075 17.3205
2.88419 -0.848629 17.3525
2.13884 -0.796599 17.2415
1.1589 -0.690168 17.3525
2.77559 -0.829084 17.3708
2.02187 -0.784128 17.3466
1.72002 -0.759608 17.2141
1.73832 -0.757595 17.192
3.01694 -0.844323 17.9609
5.93857 -0.999721 18.195
2.4517 -0.791076 17.3586
2.15034 -0.774772 17.309
5.79941 -0.970972 18.1743
1.72516 -0.746757 17.2245
1.70005 -0.745477 17.2197
2.00041 -0.746464 17.4278
1.5293 -0.71239 17.3856
1.40046 -0.70447 17.3759
1.20256 -0.696771 17.4324
3.50125 -0.8221 17.6858
1.07678 -0.674589 17.3845
1.05796 -0.676604 17.2854
5.59632 -2.2176 17.7909
2.64034 -1.27189 17.6615
2.37919 -1.15957 17.661
2.4014 -1.14058 17.5737
3.0634 -1.32587 18.1709
3.06347 -1.32377 18.1211
3.08259 -1.32427 18.0221
3.0352 -1.29401 18.037
2.99045 -1.27302 18.016
2.41848 -1.12409 17.6695
2.16199 -1.04711 17.3466
2.53407 -1.12746 17.292
2.45605 -1.11871 17.6763
2.91585 -1.23337 18.0302
2.78536 -1.15817 16.9603
2.97625 -1.24094 18
2.7613 -1.15148 17.0296
2.76839 -1.14717 16.9923
2.36951 -1.05686 17.1747
2.87665 -1.18966 18.0493
2.46823 -1.08241 17.6152
2.41433 -1.06629 17.4989
2.27438 -1.02988 17.398
2.46894 -1.06046 17.2735
2.7915 -1.12166 17.1851
2.31819 -1.02849 17.3141
2.63499 -1.08789 17.2262
2.70541 -1.09984 17.1778
2.37973 -1.03514 17.1844
3.10256 -1.19896 17.9771
2.62926 -1.06754 17.2425
4.24059 -1.38649 18.0633
2.24376 -0.979801 17.1233
3.01536 -1.15485 18.0054
2.22913 -0.966642 16.9558
2.89077 -1.12131 17.9596
6.42627 -1.7586 18.7602
1.75035 -0.88331 17.2322
1.7568 -0.873371 17.2298
2.22468 -0.943652 17.3122
5.79588 -1.53606 18.3099
1.76579 -0.866427 17.2393
2.11516 -0.916173 17.3423
2.03821 -0.889063 16.9874
2.23699 -0.931857 17.36
2.18786 -0.921766 17.2943
2.0245 -0.894988 17.2291
3.08769 -1.08036 18.0145
2.33928 -0.940163 17.3621
2.02663 -0.890281 17.2395
2.41253 -0.94673 17.3548
2.03429 -0.882131 17.0933
2.31954 -0.927668 17.3691
3.4418 -1.08868 17.6836
3.13014 -1.05826 18.0501
4.11153 -1.17882 18.0066
3.44606 -1.06329 17.6059
2.28757 -0.927628 17.9043
4.2009 -1.15564 17.7083
2.17016 -0.88585 17.2941
2.38996 -0.912953 17.3697
2.03735 -0.863335 17.2813
2.99848 -0.994342 17.954
3.00787 -0.990412 17.9477
2.99118 -0.987188 17.9173
4.60449 -1.16954 17.9727
4.05532 -1.0773 17.5875
2.4924 -0.920626 17.918
2.21134 -0.863702 17.3106
5.31157 -1.20047 17.7454
2.04506 -0.845757 17.3626
3.2388 -0.965278 17.5088
2.83924 -0.922863 17.4475
2.19307 -0.852496 17.309
2.18454 -0.845319 17.3039
4.39428 -1.07181 17.8305
4.33237 -1.069 18.0598
3.0665 -0.926185 17.4509
6.33946 -1.21743 17.8089
4.49897 -1.04095 17.6186
2.15147 -0.826731 17.2923
2.08636 -0.815976 17.2399
3.17565 -0.937273 18.0343
5.93062 -1.15515 18.1605
3.55134 -0.932252 17.511
1.70087 -0.775858 17.2421
1.03756 -0.694121 17.402
11.3528 -1.51759 19.1148
5.12859 -1.02484 17.6782
3.63699 -0.931666 18.0116
7.24541 -1.18332 18.2595
1.98688 -0.772979 17.0586
1.01016 -0.696919 17.4112
2.7127 -0.829841 17.4898
1.21396 -0.692813 17.3405
2.02979 -0.78341 17.3476
1.68094 -0.755292 17.1788
1.70146 -0.743413 17.2534
2.43356 -0.779616 17.5997
1.18253 -0.693225 17.3552
2.44871 -0.772509 17.5885
1.531 -0.724636 17.2252
2.20338 -0.750026 17.6698
1.77544 -0.71848 17.2204
1.23083 -0.705463 17.408
1.30245 -0.697827 17.2519
2.04946 -0.861852 16.9674
2.41457 -1.22872 17.6623
2.38017 -1.21715 17.6379
2.20298 -1.13911 17.4898
2.41763 -1.19046 17.6073
2.14536 -1.07847 17.3816
3.04449 -1.31841 18.0822
4.63559 -1.64752 16.2204
2.13713 -1.04325 17.396
3.00884 -1.24866 17.9318
3.03711 -1.25265 17.9866
2.4962 -1.09694 17.6188
2.32656 -1.04292 17.1781
2.75669 -1.13087 17.0135
2.17463 -1.00883 17.3819
2.44422 -1.05744 17.4202
2.31933 -1.02822 17.3315
4.06292 -1.39436 18.0047
2.32494 -1.02169 17.3794
3.02782 -1.1773 17.9994
2.53558 -1.06568 17.6121
2.71381 -1.10695 17.9805
2.9403 -1.15178 18.013
2.49043 -1.04439 17.4716
2.35014 -1.01177 17.3253
2.54758 -1.06682 17.9566
4.08839 -1.35903 18.0109
2.20164 -0.965832 17.1778
4.21106 -1.31454 17.898
1.75451 -0.870079 17.2455
4.26355 -1.2945 17.8868
2.20784 -0.941861 17.4371
1.74469 -0.860435 17.2435
2.02121 -0.90296 17.2678
2.98894 -1.0727 17.9452
2.01526 -0.888266 17.0442
2.1577 -0.915784 17.3351
2.02066 -0.888317 17.2205
1.72911 -0.843864 17.2318
2.97826 -1.04886 17.9517
3.63925 -1.13093 17.6286
1.7653 -0.846654 17.2203
2.44524 -0.965771 17.8654
4.51788 -1.24742 17.9769
1.97239 -0.873834 17.3447
2.20038 -0.898338 17.3208
3.26469 -1.0568 17.8837
2.19365 -0.893822 17.3022
1.93887 -0.726815 17.5627
1.53142 -0.802164 17.2149
2.02202 -0.853147 17.0321
3.00086 -0.993843 17.9679
5.189 -1.23174 17.7568
2.01274 -0.847519 17.24
1.99136 -0.834738 17.3551
4.20721 -1.08213 18.0568
2.32598 -0.858039 17.3978
2.23762 -0.843955 17.3272
2.14555 -0.834269 17.2967
3.05568 -0.91875 17.4305
2.34202 -0.852953 17.3922
2.10395 -0.824944 17.2945
5.46148 -1.11836 17.7223
3.77325 -0.969306 17.5375
5.34807 -1.07064 17.698
3.10057 -0.908658 18.0283
5.13648 -1.06437 18.1679
1.98946 -0.799956 17.3542
5.16172 -1.05618 18.1392
11.1123 -1.45809 18.5715
1.94613 -0.781906 17.2796
11.057 -1.39066 18.5477
2.75571 -0.832638 17.3622
2.44578 -0.826031 17.9303
2.04612 -0.770842 17.2956
