# .PCD v.6 - Point Cloud Data file format
FIELDS x y z
SIZE 4 4 4
TYPE F F F
COUNT 1 1 1
WIDTH 1757
HEIGHT 1
#VIEWPOINT 0 0 0 1 0 0 0
POINTS 1757
DATA ascii
-1.62936 -0.476545 13.3374
0.0443469 -0.317709 9.20231
0.244448 -0.277842 8.61859
-1.55908 -0.26863 9.17807
0.121816 -0.224038 7.72666
-1.59197 -0.2351 9.01764
-1.24079 -0.21179 9.68674
-0.474017 -0.168577 8.4532
-0.269713 -0.168613 8.36686
-0.144272 -0.173712 8.72949
-0.000129697 -0.14329 6.17572
-0.230966 -0.154697 7.77377
-0.136297 -0.158143 8.06308
-1.06279 -0.134509 7.43416
-0.314394 -0.140373 7.75276
-0.340919 -0.0817922 10.5963
-0.348966 -0.0992455 6.07578
-0.0347283 -0.0948325 6.25376
-0.149756 -0.0632092 6.4141
-0.297148 0.0420216 9.6964
-0.224277 -0.00412616 5.7903
-3.46283 -3.63313 47.7363
-1.05091 -0.725628 7.00667
0.122288 -0.811581 7.16505
-1.30973 -0.93499 18.9922
-0.176372 -0.660522 7.07047
-0.0769083 -0.627983 7.11182
0.238092 -0.44 6.15351
-0.104468 -0.844393 9.13565
0.256252 -0.815297 8.9343
0.255257 -0.804732 8.92407
-1.16048 -0.540009 7.58972
0.0553764 -0.364831 6.43296
-0.123148 -0.76665 9.72108
-0.956724 -0.491748 7.59008
0.00898107 -0.446268 7.25958
-0.640191 -0.747879 9.95122
0.0102784 -0.695861 9.55614
-0.163859 -0.677521 9.49268
0.21534 -0.609315 8.94146
0.289697 -0.437257 7.3653
-1.11847 -0.633224 9.32019
0.0421055 -0.324633 6.38393
-0.60662 -0.616914 9.22951
-2.53932 -0.977539 12.9201
-0.0523011 -0.566357 9.37472
-3.09637 -0.921893 13.6674
-0.0408857 -0.450152 8.87552
-1.53818 -0.752322 13.511
-2.69535 -0.695917 13.3024
-1.60979 -0.709574 13.4229
0.062407 -0.252183 6.42728
-1.25308 -0.390015 9.00737
-2.00322 -0.587899 12.341
-1.78634 -0.534024 13.9677
-1.71884 -0.425507 11.8407
-1.84976 -0.360237 11.6849
-0.132542 -0.392124 12.3869
-1.58603 -0.373588 12.5186
0.222781 -0.208164 7.08042
-0.317986 -0.159665 7.58276
-0.821149 -0.136392 8.651
-0.555625 -0.134316 7.71856
-0.578451 -0.138711 9.03213
-0.112489 -0.135771 7.60117
-0.692066 -0.116044 7.08604
-0.326272 -0.117521 7.09311
-1.05268 -0.106324 7.73549
-0.0405167 -0.108933 6.07008
-0.248305 -0.0674652 8.37406
-0.0984247 -0.0948806 6.33175
-0.907486 0.0185321 9.04752
-0.312848 -0.0161934 7.03004
-0.365475 -0.0288732 6.63591
-3.19158 -2.52273 36.816
0.410369 -0.465593 2.53535
0.275829 -0.404815 2.34176
0.199887 -0.340514 2.10777
0.366405 -0.250952 2.17297
0.31503 -0.193197 2.0931
0.39509 -0.187918 2.31978
-0.105161 0.100199 2.06375
0.0962809 -0.00684627 1.67448
0.261026 -0.379866 2.3124
0.0431759 -0.363149 2.25312
0.0449783 -0.332562 2.17273
0.0751903 0.00884418 2.40597
0.112089 -0.0257097 1.70114
-0.819378 -0.015158 3.12446
0.100566 -0.0174132 1.73078
-0.809276 -0.0288044 3.21102
0.0366357 -0.33515 2.27503
0.280726 -0.33998 2.34007
0.295164 -0.330864 2.36652
0.379667 -0.31185 2.49311
0.270732 -0.259912 2.22024
0.135182 -0.319854 2.80749
0.177599 -0.37353 3.34469
-1.08239 -0.453232 3.9039
-1.15627 -0.431319 4.11779
-0.8981 -0.410547 4.17403
0.11539 -0.458399 4.75357
0.109966 -0.049499 1.79163
-1.20547 -0.136558 4.85372
0.104552 -0.0397269 1.85341
0.1052 -0.0368882 1.79392
0.0743001 0.0107063 2.23981
-0.352434 0.186561 3.39921
-1.1924 -0.739077 4.30188
0.113177 -0.314217 2.39912
0.212382 -0.259979 2.21914
-1.00331 -0.0683987 4.01908
-1.03863 -0.0434526 4.09387
-1.02394 -0.459961 4.09118
0.186903 -0.299649 3.39656
-1.02957 -0.366439 4.06853
-1.00828 -0.356769 4.0388
0.396503 -0.295779 3.79421
-0.973592 -0.30224 4.003
0.238976 -0.362384 4.82892
-1.37108 -0.522079 9.71619
-0.977919 -0.6535 4.08348
0.077287 -0.69068 4.48308
0.11023 -0.0701524 2.49365
-0.881038 -0.454124 4.36573
0.297045 -0.212821 2.7183
-0.918208 -0.612232 4.18131
0.168206 -0.614744 4.51197
0.138457 -0.179017 4.64301
-1.08317 -0.503757 5.62118
0.0768427 -0.48393 4.70384
-0.157426 0.0401294 4.20884
-1.0215 -0.550623 8.80934
-0.855126 -0.049317 4.09841
0.267522 -0.40726 3.27898
-1.16649 -0.616378 5.17702
0.418016 -0.311003 4.09326
-1.08695 -0.506261 6.30172
0.291176 -0.249151 5.10695
0.133749 -0.402867 5.39777
0.0578224 -0.799207 4.76888
0.287467 -0.403501 6.03138
0.191972 -0.147751 3.309
0.011268 -0.670499 6.9538
0.0535529 0.0122963 2.74376
0.214725 -0.364064 3.38557
-2.09402 -1.07719 13.2724
-0.0661211 -0.0917527 5.37323
1.99425 -1.52718 12.0673
0.00493607 -0.728359 4.72521
0.214456 -0.505652 5.59879
-1.59618 -0.368233 9.0236
0.397851 -0.290561 4.08109
0.415522 -0.219112 4.07848
-1.14041 -0.55609 5.40816
-0.91652 -0.0892823 4.99923
0.0266812 -0.0719047 3.70852
0.0292116 -0.0911852 3.80013
-0.0614942 -0.65898 4.72789
-0.0574748 -0.0820654 5.33194
-0.0968469 -0.0489996 4.45612
-1.19348 -0.30996 7.66225
-1.12301 -0.357588 5.59423
1.45183 -1.17925 8.77121
-0.971256 -0.629942 5.34784
0.407024 -0.392823 4.65813
0.414408 -0.372208 4.60233
-0.0582207 -0.0671159 5.67589
-1.27462 -0.747173 7.03513
-0.258897 -0.668497 10.0727
-1.13249 -0.602209 7.09766
-1.10853 -0.792152 7.10128
-2.14083 -2.20053 46.2935
-1.24608 -1.01734 11.124
-5.18611 -4.46637 67.7766
0.223467 -1.04806 7.92314
-0.901219 -0.65572 6.72006
-1.18407 -0.507376 7.5747
-0.259761 -0.066069 6.34584
-1.97306 -0.737032 10.2312
-1.06329 -0.125792 7.44522
-1.49774 -0.24955 9.72058
-0.091316 -0.0912143 6.35115
-0.84723 -0.144098 8.60954
-0.0228446 -0.50129 6.39442
0.119585 -0.483047 6.35226
-0.146431 -0.61771 7.0693
-0.074104 -0.615968 7.10798
-0.079658 -0.138494 6.07519
0.0860904 -0.854193 9.04609
0.26977 -0.76354 8.85289
0.0164839 -0.793566 9.19054
-0.176438 -0.767711 9.21562
0.0373058 -0.800784 9.44128
-1.20131 -0.999563 11.0247
-0.993109 -0.114226 7.60257
-2.84794 -1.21777 13.3429
-1.17745 -0.750573 9.65876
-0.0325825 -0.711777 9.28348
-0.0462143 -0.709511 9.4223
0.0477121 -0.341681 6.38158
-1.0507 -0.473044 7.57935
-0.15618 -0.699293 9.50865
-0.418925 -0.148451 7.75399
-0.193417 -0.639054 9.23718
-2.91635 -1.11513 14.041
-1.28769 -0.712413 10.1695
-2.73927 -1.07109 13.7917
-1.09272 -0.162029 8.94682
0.0809328 -0.568734 9.07719
-1.02381 -0.17679 9.45523
-1.39684 -0.751069 11.5984
-1.96063 -0.65028 10.9519
0.0287335 -0.334485 7.1206
0.0292636 -0.366113 7.57721
-4.1737 -4.24154 61.9242
-0.778784 -0.200887 9.06807
-0.168507 -0.532985 10.9513
-1.42238 -0.639389 13.9112
-1.73207 -0.480755 11.6157
-2.32943 -1.78885 38.2346
-1.45768 -0.305968 8.68926
-1.45279 -0.289924 8.69871
-1.7291 -0.459478 12.808
-1.60917 -0.540693 14.7412
0.133378 -0.301156 8.74734
-1.51231 -0.509297 14.4537
-1.67539 -0.480676 14.7993
-1.45544 -0.257205 8.70786
0.106066 -0.277415 9.04684
-0.00451166 -0.158834 6.19177
-0.982174 -0.216757 9.48155
0.0201506 -0.190362 7.51829
-1.47482 -0.58925 9.83025
0.265299 -0.193923 6.43506
-0.0190933 -0.69678 7.14601
-0.155497 -0.646738 7.08298
-0.311422 -3.6617 20.4373
0.119557 -0.403217 6.25142
-0.0269578 -0.825803 9.26054
0.0172481 -0.812472 9.33708
0.164443 -0.75802 8.99099
-0.830031 -0.534716 7.65704
0.0984763 -0.699602 8.91891
-0.831367 -0.500869 7.60305
-0.895471 -0.481854 7.54083
-1.26141 -0.792599 9.76772
-0.00771495 -0.461768 7.52924
0.0435659 -0.308227 6.38256
0.537521 -0.494614 7.81481
-2.00631 -1.47377 15.5621
-0.0610306 -0.711045 9.70943
0.0151026 -0.388521 7.09725
-0.0787922 -0.692335 9.71076
-1.43626 -0.894282 11.5263
-2.20854 -0.917787 11.8519
-1.22463 -0.898157 11.6709
-0.177647 -0.655727 9.5579
0.532473 -0.442705 7.70348
-1.46609 -0.67995 9.86611
0.0111488 -0.367936 7.0966
-0.290373 -0.556348 8.82981
0.269176 -0.548611 8.75422
0.298979 -0.548057 8.81735
-1.2922 -0.646482 9.82346
-0.0602698 -0.567425 9.23046
-1.61556 -0.827917 12.0468
-2.37185 -1.41153 38.6344
-1.61636 -0.764706 12.4686
-0.698456 -0.749199 12.277
-2.78866 -0.803662 13.3336
-0.00274502 -0.413321 8.96127
-2.67915 -0.673125 13.1303
-1.7169 -0.644379 12.6901
-0.188307 -0.598268 11.984
-1.24769 -0.372748 8.95245
-2.03906 -0.577687 12.3551
0.236571 -0.299165 7.81452
-1.5541 -0.589626 13.3888
-0.0814269 -0.403989 10.3514
0.107308 -0.329808 9.03137
-1.46831 -0.320903 9.02008
-0.670959 -0.902013 21.6324
-0.0515898 -0.342315 9.47835
0.252554 -0.338519 9.39455
-0.0572486 -0.142989 6.00938
-0.400831 -0.500766 14.6039
-0.0265302 -0.17045 6.18507
-1.5729 -0.320199 12.0987
0.000333094 -0.160367 6.1283
-0.0241244 -0.158834 6.16187
-0.258603 -0.173067 8.60985
-0.078274 -0.103754 6.05189
-0.342555 -0.165173 8.50782
-1.36414 -0.160943 8.94691
-0.318755 -0.154324 7.77599
-0.0883965 -0.151923 7.3398
-0.00562505 -0.141091 6.01731
-0.0529363 -0.139149 6.09572
-0.129682 -0.112813 6.50576
-0.0729531 -0.105785 6.05
-0.160783 -0.00618314 8.85924
0.071868 -0.454984 6.42043
0.21549 -0.151728 6.62269
-0.951422 -0.326253 14.3522
-0.082868 -0.0903348 6.32054
0.108282 -0.95368 9.04747
0.0203503 -0.396022 6.43342
0.29133 -0.888006 8.84262
0.0850609 -0.820177 9.03588
-0.63555 -1.09401 10.7542
-0.057458 -0.827256 9.30605
-0.0480749 -0.817434 9.34677
0.0560311 -0.796777 9.37484
-1.28468 -0.843501 9.83938
-1.4271 -1.06302 11.7124
-0.156355 -0.731875 9.51146
-1.26861 -0.749727 9.69733
-0.102415 -0.706325 9.38766
0.0716291 -0.69607 9.37547
-0.0789108 -0.687174 9.64164
-0.0422091 -0.596804 8.97226
0.171304 -0.491984 8.11246
0.391722 -0.405801 7.40603
0.540489 -0.43574 7.65393
-0.304722 -0.581059 8.9009
-3.00093 -1.09964 13.3454
-1.22686 -0.655433 9.6622
-0.0769685 -0.555736 8.81294
-0.482711 -0.543006 8.75941
-1.57493 -1.07487 13.8995
-1.58456 -1.09292 14.0676
0.0420915 -0.380832 7.5878
-1.63238 -0.859323 12.4337
0.309974 -0.410529 8.18054
-0.549362 -0.831 13.525
-1.9432 -0.743958 13.4473
-1.38518 -0.615993 12.5138
-1.48077 -0.378094 9.06105
-1.43425 -0.64619 13.5004
-0.0738143 -0.0991106 6.05586
-0.0253382 -0.357593 8.89722
-1.41684 -0.686874 15.1769
0.442451 -0.333555 8.88386
-0.143805 -0.411752 10.5613
-1.58205 -0.54297 13.4388
-0.0977698 -0.446527 12.0877
-1.46671 -0.30417 8.95498
-0.0777664 -0.345455 10.0171
-1.77861 -0.38036 11.6784
-1.94713 -0.836838 24.3652
-1.56455 -0.334115 10.7153
-1.49717 -0.331856 11.3886
-1.45878 -0.469393 16.7895
-1.3086 -0.234468 10.1323
-0.712291 -0.198596 9.06906
-0.292213 -0.183762 9.26873
-0.07855 -0.0988197 6.23305
-0.386614 -0.144282 7.82055
-0.357846 -0.138943 7.83328
-0.396479 -0.12368 7.32304
-0.0792089 -0.132054 6.03297
-0.219978 -0.11231 6.83953
-0.441178 -0.107886 6.57673
0.367474 -0.504699 8.92016
-0.592538 -0.132529 7.38372
0.408465 -0.897655 8.8373
0.437644 -0.811555 8.52994
0.122144 -0.855365 8.90552
0.184355 -0.811444 8.97893
-0.0848256 -0.091004 6.31715
-0.178737 -0.762456 9.36987
-1.40199 -1.01763 11.3242
0.531631 -0.649244 8.82573
-1.2944 -0.742318 9.74336
0.127703 -0.647561 9.12213
-3.01253 -1.21609 13.4475
-0.145628 -0.566934 8.77336
-1.42705 -0.860611 11.2237
-0.100665 -0.557837 8.75605
-1.48306 -0.681115 9.82026
-2.86315 -1.11952 13.603
-1.33185 -0.664539 9.75855
-0.354901 -0.549622 8.79834
0.248309 -0.380135 7.36682
0.244578 -0.376155 7.36727
-0.013842 -0.485701 8.59437
0.237412 -0.343904 7.28958
-1.80675 -0.887023 12.6485
-1.4402 -0.789339 11.6916
-1.90807 -1.32242 16.9494
-0.220137 -0.111738 6.86575
-2.95628 -0.933588 13.2397
-1.71856 -1.14911 15.6538
0.0355979 -0.364179 7.61338
0.0222655 -0.487205 9.28969
0.118975 -0.478596 9.19342
-3.38694 -3.39065 44.43
-0.778774 -0.938017 15.3918
-2.02822 -0.689574 12.376
-1.54486 -0.697357 12.892
0.143558 -0.436328 9.4752
0.0183291 -0.403426 9.1119
0.035011 -0.352285 9.14982
-0.103281 -0.410646 10.406
-0.200424 -0.128655 7.65847
-1.60892 -0.487226 13.3348
-0.542531 -0.592782 16.4583
-1.91388 -0.739392 20.8021
0.0267011 -0.208896 7.57678
-1.99304 -0.339011 12.5523
-0.871752 -0.250551 9.256
-1.20858 -0.372451 13.9497
-1.22012 -0.179012 8.99243
-10.8804 -9.00992 44.2828
-0.0224308 -0.578081 7.09078
-1.15473 -0.191451 8.73582
-0.420271 -0.365741 12.3206
-0.187026 0.362229 9.66962
0.35843 -0.872381 8.91292
0.440759 -0.877491 8.93713
0.181697 -0.837314 8.84219
0.156772 -0.824659 8.84558
0.498969 -0.749207 8.63182
0.426888 -0.764422 8.74305
-0.84156 -0.539456 7.60783
0.313358 -1.43001 12.3475
-0.0230695 -0.818907 9.13704
0.0753623 -0.758913 9.00396
0.564668 -0.693166 8.63441
0.0350523 -0.818902 9.38882
0.490215 -0.633028 8.57135
-0.826003 -0.464753 7.58114
0.0835344 -0.677802 9.02445
-1.33792 -0.76826 9.7169
-0.0879469 -0.66835 9.25841
-1.31931 -0.707193 9.76645
0.00421203 -0.415951 7.5648
-0.0281451 -0.589621 8.94119
0.0419833 -0.683996 9.73924
-1.21161 -0.88728 11.4136
-2.86973 -1.09744 13.1924
0.0202838 -0.338539 7.06836
0.226568 -0.369829 7.38667
-1.70695 -1.03741 13.3687
-0.303827 -0.583597 9.37116
-0.561634 -0.515998 8.82591
0.0478179 -0.58694 9.47811
0.0153324 -0.371299 7.53038
0.290012 -0.346066 7.3746
0.0170574 -0.360037 7.57705
-0.431833 -0.819934 12.7653
-1.92648 -0.747682 12.0898
-0.680592 -0.868894 14.0362
0.247086 -0.42135 8.91232
0.266773 -0.33175 7.79527
0.0503112 -0.403485 9.03701
-1.24652 -0.372335 8.94038
-2.06427 -0.573509 12.2711
0.0270305 -0.377328 9.18588
0.0254072 -0.33927 9.16407
-1.853 -0.503308 12.8141
-0.672459 -0.454589 11.8579
-0.0404424 -0.325728 9.71892
0.261568 -0.283295 8.71523
-1.63104 -0.501255 14.2754
-1.66254 -0.483173 14.2635
-0.107961 -0.360092 11.0874
-1.3775 -0.464271 15.3854
0.0219986 -0.210713 7.52717
-1.64285 -0.311724 11.6696
0.196417 -0.198881 7.39574
-0.162227 -0.11797 7.86213
-0.18392 -0.192099 9.07509
-0.0512692 -0.147567 7.32146
-0.0175367 -0.147833 7.2118
-0.128675 -0.143023 7.54367
-0.316314 -0.137309 7.85017
-1.48719 -0.268414 9.34915
0.127553 -0.809877 8.82306
0.709906 -0.724661 8.55496
-1.14575 0.909723 19.4095
-0.101234 -0.84222 9.21101
-0.0311273 -0.832416 9.27083
0.0701558 -0.734877 9.04167
0.0878889 -0.699067 9.02853
-0.106798 -0.73823 9.45096
-0.0453754 -0.701612 9.26241
0.408229 -0.477662 7.80921
-1.41934 -0.769045 9.75049
-1.55094 -0.735993 9.9242
-0.413511 -0.587009 8.84597
0.66721 -0.616176 9.06128
0.27301 -0.568858 8.80724
0.138238 -0.599196 9.08481
-1.30201 -0.681897 9.77004
-1.48328 -0.678669 9.80818
-1.39598 -0.841331 11.0842
0.104193 -0.583269 9.06672
-1.28771 -0.666032 9.7742
-2.83804 -1.06992 13.2288
-1.62429 -1.17911 14.7376
-1.17382 -0.540029 19.4717
-0.581033 -0.505022 8.90458
0.0206624 -0.30743 7.09834
0.154238 -0.491161 8.90041
-1.99383 -0.846396 12.6679
-2.36244 -1.55984 20.8037
-0.467288 -0.829609 13.1182
-2.46854 -1.77316 24.3229
-1.40146 -0.456055 9.40539
-1.2364 -0.405881 8.94651
-1.73021 -0.750667 13.6553
0.147603 -0.376812 8.66272
-1.99083 -1.32787 22.7989
-2.0069 -0.620515 12.8786
-1.7678 -0.449853 11.2791
-0.0324289 -0.437749 11.0876
-0.183655 -0.502484 13.2037
0.0389561 -0.30845 9.13805
-1.46198 -0.511169 14.0973
0.0695629 -0.297519 9.04337
-1.55811 -0.46764 14.3033
-0.310341 -0.472859 14.4973
0.276004 -0.261851 8.79285
-0.146036 -0.138485 7.63946
-0.197166 -0.356837 13.4557
-1.49729 -0.21073 9.41817
-0.357378 -0.20183 9.45293
-1.25865 -0.183139 9.93563
-1.23082 -0.164751 8.76208
-0.274838 -0.163061 8.69645
-0.0434596 -0.577371 5.32013
0.0456248 -0.56615 5.31893
0.121062 -0.274611 4.71179
0.216679 -0.595977 5.76396
0.109628 -0.37332 5.36716
-1.30009 -0.602363 7.21829
-0.803251 -0.504731 7.51698
0.27736 -0.227923 5.80157
0.268209 -0.174252 5.42118
-0.0555439 -0.177284 6.19185
-1.16794 -0.624317 7.00764
-0.387561 -0.0363733 5.80544
-0.0117019 -0.325851 7.25684
-1.14901 -0.50002 6.98905
0.00309017 -0.759313 9.19129
-0.168189 -0.936038 12.0746
0.139279 -0.295315 5.93072
0.00981441 -0.77521 7.0986
-0.808767 -0.194251 8.99885
-1.03023 -0.583294 6.91852
-1.03245 -0.567242 7.06191
-0.0168319 -0.781881 7.1347
-1.00071 -0.744438 7.07206
0.250215 -0.316885 6.00153
-1.11077 -0.124276 7.383
-0.915788 -0.282917 9.69535
-1.59135 -0.397208 12.2968
-0.404056 -0.085783 7.24749
-1.01629 -0.116754 7.43022
-0.058771 -0.136844 6.09664
-0.0809108 -0.640905 7.09357
-0.151018 -0.714732 9.43994
-1.66664 -0.557311 14.9041
-0.0310669 -0.63077 7.1241
-0.0518432 -0.609915 7.13528
-0.405731 -0.15673 7.90283
-0.0834642 -0.738612 9.32344
-0.0263308 -0.840009 9.36883
-0.583267 -0.618689 8.95778
-1.62743 -0.605534 14.9396
-0.240916 -0.677828 9.31666
0.0180355 -0.328955 7.11253
0.156737 -0.32698 7.39098
0.0798706 -0.929843 9.11968
-0.0615408 -0.865343 9.20754
0.43114 -0.795063 9.07
0.176468 -0.748306 8.93671
-1.28956 -0.88215 9.71564
-0.0311368 -0.782164 9.22268
-0.165732 -0.749562 9.21756
-1.39602 -0.809232 9.71195
-1.18971 -0.770347 9.77366
0.0543717 -0.699258 9.31743
-0.326447 -0.0866452 7.43195
-0.0829106 -0.671024 9.34488
-0.055044 -0.622837 9.0385
0.127423 -0.606707 9.00425
-1.52752 -0.720386 9.83854
-0.210066 -0.657562 9.38722
-0.325214 -0.575779 8.88714
-0.164666 -0.594184 9.04473
-1.51503 -0.913989 11.3953
-0.305542 -0.567313 8.94276
0.0515397 -0.636485 9.41484
-0.247229 -0.556386 8.90352
-1.21708 -1.37052 15.0756
-0.206633 -0.51816 8.82211
0.0865487 -0.546523 9.12083
-0.132192 -0.114672 7.38471
0.0583929 0.703405 12.9344
-1.41958 -0.789667 11.5069
-0.0282313 -0.456135 8.89107
0.018317 -0.487069 9.24473
-1.61089 -0.720373 12.1701
-1.56765 -1.65947 23.0765
-3.36485 -0.915853 15.1403
-1.6504 -0.885653 14.7115
-0.657284 -0.794637 14.1698
-0.238615 -0.346038 8.40969
-2.42142 -0.701906 13.2429
-2.53351 -1.48691 24.043
-2.53448 -0.677067 13.3014
-2.20709 -0.595745 12.7093
0.0397355 -0.360672 9.21888
-0.143234 -0.430422 10.991
-1.62441 -0.571915 14.0106
-0.167336 -0.432057 11.214
0.0270367 -0.329069 9.20707
-1.48015 -0.504773 12.9685
-0.161094 -0.392516 11.0206
0.0591426 -1.06447 27.7042
-1.64138 -0.674339 20.5217
-0.705461 -0.370014 14.8116
-0.314013 -0.255621 10.1567
-0.107811 -0.230913 8.955
-0.158233 -0.11564 7.67886
-1.47438 -0.229082 9.72956
-0.21302 -0.225953 10.3464
-0.188595 -0.190885 8.91303
-0.178041 -0.0689464 7.57005
-0.411858 -0.167885 9.06051
-0.115816 -0.164579 8.52939
-0.344134 -0.134574 7.76142
-0.11373 -0.144994 7.34547
-0.0317561 -0.145952 7.22387
-1.42213 -0.730477 9.73321
0.428418 -0.724041 8.62443
0.106411 -0.794337 9.04321
-0.273775 0.130335 9.85505
-1.30433 -0.853561 9.79457
-1.19279 -0.826301 9.87357
-1.34868 -0.79549 9.74719
-1.34313 -0.771399 9.68981
0.00446953 -0.721737 9.38431
-1.23752 -0.768996 9.79264
0.0708943 -0.699526 9.39903
-1.23021 -0.754539 9.79021
-0.117903 -0.0343878 8.7569
0.0788596 -0.627293 9.0731
-1.1714 -0.730072 9.76818
-0.620332 -0.603367 8.97448
-0.0740243 -0.597827 8.92895
-0.0785194 -0.561311 8.86329
-1.408 -0.904243 11.2164
-1.31814 -0.920234 11.3213
-1.19493 -0.683305 9.83149
-1.1755 -0.772575 10.5021
-0.579953 -0.53835 8.85843
-0.15586 -0.755508 10.6039
-1.3613 -0.628715 9.7462
-1.9375 -1.17692 14.2283
-1.56176 -0.680291 10.5913
-1.58039 -0.941624 12.7846
-1.62558 -1.16134 14.6292
-2.31713 -0.951087 13.3608
-0.689928 -0.787583 12.7977
-1.81133 -0.713138 12.2977
-0.311114 -0.672977 12.2107
-1.35479 -0.764244 13.6735
-0.0159392 -0.41165 9.58237
0.00988953 -0.37856 9.12392
-1.88248 -1.18102 20.685
-1.41476 -0.638752 14.0747
0.0186823 -0.241971 7.54448
-1.27602 -0.344535 10.0549
-0.170938 -0.573798 15.0138
-1.39977 -0.405359 12.4809
-1.6789 -0.556021 17.0767
-1.52314 -0.305092 10.2467
-0.145016 -0.37065 13.4192
-0.0388739 -0.289692 11.1866
-1.24294 -0.248032 9.78974
-0.541491 -0.327164 13.4444
-0.700244 -0.206988 8.74962
-1.28219 -0.295863 15.5542
-0.410549 -0.242602 11.4168
-0.213899 -0.208827 9.29215
-0.718918 -0.191681 8.67988
-0.41414 -0.142925 7.84483
-0.409976 -0.143188 7.83278
-0.525696 -0.134272 7.81823
-0.339679 -0.138215 7.682
-0.471702 -0.129978 7.76375
0.020107 -0.402165 9.11411
0.521322 -0.370127 8.84169
-1.57893 -2.30906 15.3298
-0.0495832 -0.820581 9.25146
0.154897 -0.747779 8.93723
0.227642 -0.725712 8.90427
0.0878067 -0.750641 9.06131
-0.173685 -0.140654 7.53253
0.0815573 -0.727701 9.05125
-0.0385366 -0.766219 9.25756
-0.226449 -0.783131 9.42265
-0.206317 -0.75349 9.30688
-0.507998 -0.804404 10.0084
-1.19377 -0.698291 9.4937
-0.431288 -0.592066 8.9308
-0.376264 -0.59411 8.9419
-0.604952 -0.565067 8.94896
0.120478 -0.577704 9.01722
-1.49408 -0.930221 11.3258
-0.557937 -0.529018 8.87181
-1.21835 -0.868632 11.2339
-0.37131 -0.539388 9.27939
-0.295015 -0.514769 9.12988
-1.56161 -0.981626 13.1076
-0.288841 -0.547279 9.52703
0.0740858 -0.539547 9.45781
-1.78686 -0.798772 12.5096
-1.29726 -0.810315 13.9194
-0.651195 1.405 12.6829
-2.17028 -1.81764 27.2199
-1.6354 -0.68361 13.8341
-7.43851 -9.19129 149.867
-1.46787 -0.67528 15.255
-0.14056 -0.432386 10.9548
-1.69509 -0.572797 13.7123
-1.84183 -0.481048 12.2522
0.00311441 -0.328161 9.55351
-0.0661447 -0.318401 9.47833
-1.82033 -0.429959 12.419
-1.77126 -0.408843 12.1925
-0.323663 -0.433734 13.1103
-1.35863 -0.464137 15.3181
-0.147348 -0.110507 7.73286
-1.24224 -0.304821 11.6904
-0.136787 -0.216098 9.07513
-1.22999 -0.233266 11.8965
-0.414362 -0.149134 7.77702
-0.299846 -0.17118 8.60293
0.110767 -0.762039 8.99946
-0.0521978 -0.803265 9.28416
-0.157645 -0.75774 9.22199
0.0674764 -0.781873 9.42041
0.246572 -0.668974 8.91144
-0.0463028 -0.680476 9.18899
-0.227497 -0.700319 9.34046
0.0925715 -0.645485 9.11078
0.106158 -0.629131 9.02627
-0.574772 -0.607805 8.94162
-1.17555 -0.742595 9.84416
-1.20183 -0.727576 9.795
0.0727152 -0.651301 9.42316
0.0936541 -0.651667 9.42522
-0.123972 -0.66089 9.51153
-0.2817 -0.583322 9.20517
-1.50479 -0.935578 11.4542
-0.550715 -0.522728 8.85589
0.11335 -0.332379 9.04693
-0.0626324 -0.483943 8.91789
0.516484 -0.515421 9.14881
-0.341111 -0.524742 9.29252
-0.0655269 -0.55806 9.58812
0.107485 -0.483725 9.09185
-1.54722 -0.968658 13.0283
-0.077833 -0.546327 9.8365
-1.97478 -0.892312 13.1453
-0.296192 -0.682646 11.4196
-0.318972 -0.721577 11.8859
-2.73345 -1.98705 24.7578
-2.24349 -1.98082 24.6984
-0.409505 -0.790379 12.7844
-1.52601 -0.735854 12.3457
-0.517443 -0.747717 12.5952
-0.473559 -0.828734 14.8156
-0.18629 -1.09559 18.1781
-0.532557 -0.610655 12.2099
-2.27044 -0.687327 13.3538
0.287637 -0.352662 8.94408
-2.32741 -0.629701 13.102
-1.48433 -0.489216 12.8888
-1.51134 -0.55608 14.2568
-1.8637 -0.446488 12.4811
-1.62813 -0.568871 21.0931
-3.88236 -2.47479 108.831
-0.468499 -0.359936 15.2149
-1.12863 -0.277603 12.1988
-0.403933 -0.209064 10.2534
-0.137068 -0.196474 9.01669
-0.627808 -0.176405 9.62514
1.03861 1.33233 14.323
-0.182198 -0.119927 7.66604
-0.997457 -1.82544 43.3042
0.415107 -0.634888 8.95152
-1.2542 -0.777785 9.73805
-0.31616 -0.1376 7.75234
0.0842287 -0.86535 9.47113
-0.173099 -0.753854 9.21455
-0.186914 -0.74385 9.19294
-0.213837 -0.7413 9.29762
-0.0552673 -0.687715 9.1416
-0.699524 -0.176602 9.2751
-0.598223 -0.751132 9.59683
-0.533844 -0.578425 8.91606
-0.0440713 -0.588074 8.95177
-0.612512 -0.588006 8.98665
-1.18968 -0.737216 9.81603
-0.287728 -0.564287 8.91818
-1.34614 -0.913642 11.38
-0.260829 -0.183895 8.89798
0.37659 -0.478194 8.96055
-2.30064 -1.09266 13.6408
-1.69166 -0.873282 12.0127
-0.0428389 -0.45562 8.92689
-0.376987 -0.877527 12.4081
0.252986 -0.429986 8.90293
-1.06276 -1.1204 15.7737
-0.510803 -0.766495 13.5473
-2.13982 -0.678919 12.7475
-0.0741889 -0.498965 10.5552
-2.74438 -2.17877 31.4893
-0.427631 -0.769636 14.4497
-1.97033 -0.657102 13.401
-0.384418 -0.539232 12.8647
-0.10286 -0.410847 10.6729
-0.256282 -0.576091 13.9657
-0.306683 -0.658971 17.9136
-1.78226 -0.819844 22.5269
-0.105798 -0.327343 10.4649
0.0884397 -0.274941 9.09312
-0.766449 -0.241095 8.74891
-1.42993 -0.372979 14.5361
-1.50768 -0.504544 19.9478
-0.738477 -0.210373 8.59079
-0.670288 -0.235647 10.6614
-0.444129 -0.232818 10.3801
-0.153109 -0.214325 9.16133
-0.138452 -0.209116 9.06469
0.122629 -0.3045 4.71045
0.160783 -0.214207 4.01275
0.194091 -0.499943 4.185
0.167411 -0.397375 4.01695
-1.01041 -0.556899 5.28022
0.0515132 -0.0972453 3.45339
-0.933359 -0.0635145 5.02443
-1.0548 -0.621761 5.50595
1.80743 -1.10659 8.26288
0.104729 -0.322993 4.69073
-1.19491 -0.493814 6.17275
0.45831 -0.267687 4.63998
-0.863259 -0.5718 7.89741
-1.09537 -0.3425 5.6095
0.291511 -0.234354 4.90038
0.098299 -0.540025 4.6981
-0.954122 -0.614807 5.35677
0.148599 -0.869225 8.70795
0.11317 -0.336431 4.73117
0.152513 -0.197479 4.01079
0.0298638 -0.105991 3.8812
-0.91789 -0.0569145 5.28374
0.155965 -0.766551 7.41464
-1.20947 -0.40547 6.21935
-1.14437 -0.602292 8.59331
-2.6232 -0.889584 13.5273
0.0690744 -0.673977 5.35285
0.0506836 -0.642593 5.3091
0.112779 -0.628634 5.31991
0.0106928 -0.624691 5.32688
0.340322 -0.398902 4.67496
-2.09544 -0.968237 12.4604
0.095884 -0.770062 7.50583
-0.922487 -0.333257 5.79055
0.321451 -0.284505 4.64392
-1.11899 -0.445412 6.18828
-1.11826 -0.42607 6.13881
0.222734 -0.409656 6.13817
0.00632338 -0.130404 4.75486
-0.0346358 -0.120077 5.09176
-0.0410923 -0.573526 5.31487
0.290656 -0.323224 4.91818
0.308682 -0.325556 4.89835
-1.32294 -0.640218 7.02455
0.105273 -0.856259 8.79906
-1.14012 -0.495574 6.3121
0.305726 -0.330957 4.90551
-1.27787 -0.879999 18.0431
0.115375 -0.460205 5.35565
-0.00054983 -0.109476 4.77746
-1.21835 -0.621246 6.87944
-0.0364877 -1.01624 7.35399
0.0965375 -0.742984 7.12824
-1.48371 -0.577199 9.76525
-0.129462 -0.157413 7.46956
0.0906832 -0.806807 7.18457
-0.765105 -0.142149 8.54505
-0.792189 -0.0495125 11.8208
-0.411061 -0.0803452 7.87122
0.0323183 -0.359607 6.40557
-1.42895 -0.544244 11.9849
-0.0996111 -0.690693 7.66085
-0.401293 -0.154737 7.87941
-5.10332 -5.48939 40.217
-1.65318 -0.532103 20.3064
-0.292699 -0.547723 12.5028
-0.171912 -0.729897 9.42609
-0.0470546 -0.336941 9.58742
-0.251836 -0.172409 8.07998
-1.27828 -0.596749 21.1002
-0.290498 -0.183544 9.48076
-0.236526 -0.718945 9.25628
0.138224 -0.740478 9.40229
0.121314 -0.625582 9.02154
-0.49805 -0.596842 8.93366
-0.53887 -0.593164 8.93242
0.111182 -0.70359 9.41092
-0.563595 -0.554766 8.82409
-0.295865 -0.57795 8.92382
0.0773802 -0.656761 9.33706
0.0807648 -0.658168 9.40163
-0.550035 -0.524905 8.83073
-0.0230153 -0.62497 9.32538
-0.230268 -0.625631 9.34921
-0.0508062 -0.609244 9.58838
0.0842717 -0.509136 9.08644
-1.30707 -0.819934 10.9439
-0.35364 -0.531763 9.2419
-1.16841 -0.831521 11.4086
-0.131383 -0.194276 8.97483
-0.574461 -0.167105 8.71567
-0.0749919 -0.529155 9.52265
-2.35151 -1.08322 13.4631
-2.48591 -1.08681 13.5776
-1.33293 -0.759527 11.2544
-2.19235 -0.979465 13.1546
-1.60659 -0.996393 13.5731
-0.0166002 -0.439775 9.20763
-0.098776 -0.557923 10.3053
-0.667301 -0.744352 12.7216
-1.3275 -0.621407 12.4295
-2.17854 -1.655 25.0922
-0.585138 -0.598948 12.5565
-0.365069 -0.613345 12.7499
-1.8927 -0.694633 14.1812
-1.95878 -1.19933 21.2522
-0.0267889 -0.36663 9.60943
-1.44634 -0.548137 12.7581
-1.63778 -0.67374 14.7422
-0.46935 -0.179374 9.1182
-1.93731 -0.758297 17.0152
-0.0739693 -0.308946 9.49376
-0.0334296 -0.280592 8.91519
-1.8254 -0.626104 18.2071
-0.25946 -0.185078 8.88816
-1.50708 -0.42004 13.555
0.0501433 -0.286076 9.7468
-0.872254 -0.355437 16.6895
-0.124124 -0.224824 8.94933
-0.0428349 -0.223376 8.85633
-0.39788 -0.201573 9.61741
-0.373598 -0.190551 9.98388
-0.53734 -0.589096 8.92032
-0.321768 -0.579237 8.91457
-0.550869 -0.57194 8.88747
-0.563094 -0.550642 8.82611
-1.291 -0.582875 21.0875
0.451297 0.464103 21.6158
-0.533443 -0.158924 8.67041
-0.585658 -0.554559 8.88475
-0.325627 -0.590165 9.25826
-0.309001 -0.572866 9.28041
-1.21695 -0.941376 11.1251
-1.38328 -0.844861 11.3359
-1.48643 -0.800037 11.2403
-0.227705 -0.497736 9.47039
-0.304435 -0.731559 11.1321
-0.0836829 -0.541763 9.94592
-0.321423 -0.757683 11.5382
-2.40614 -1.04378 13.6204
-1.42465 -0.744569 11.5855
-1.60339 -0.891246 12.7909
-0.306177 -0.706093 11.4581
0.0485677 -0.45079 9.54513
-1.60733 -1.00819 14.0278
-1.76099 -0.859361 13.1605
-0.71387 -0.770623 12.4891
-0.448021 -0.769527 12.6017
-0.139408 -0.188578 10.5169
-1.80955 -0.74413 12.397
0.259499 -0.383184 9.28587
-0.776058 -0.724555 12.7376
-0.680787 -0.704551 12.5464
-1.35042 -0.851313 14.381
-0.333492 -0.640645 12.8264
-0.0673327 -0.3573 9.51484
-1.65405 -0.577843 12.336
-1.35154 -0.626629 13.0488
-0.0171131 -0.46373 11.0762
-0.391903 -0.517446 12.1216
-0.0616387 -0.366005 9.95043
-1.64669 -1.14798 21.6084
-2.14716 -1.9413 34.4079
-0.362734 -0.517704 12.5916
-0.349902 -0.486564 13.2281
-1.84334 -0.48886 13.3661
-0.425203 -0.535199 15.9309
-1.7428 -0.817561 23.5093
-1.63017 -0.490712 15.1976
-1.2362 -0.335972 12.7937
-0.147444 -0.247033 9.7515
-0.393299 -0.204207 10.2556
-0.0502001 -0.198734 8.6938
0.019009 -0.429401 8.95873
-0.027834 -0.479253 9.30887
-0.0665336 -0.569997 8.92704
-0.609134 -0.559107 8.92004
12.2497 4.62895 51.803
-0.555534 -0.480464 16.3064
-0.281325 -0.187914 9.5913
-0.561528 -0.518947 8.8576
-0.287184 -0.566686 9.21601
-1.37553 -1.02942 11.2886
-0.360058 -0.540541 9.25754
-0.31323 -0.516937 9.26108
0.0482022 -0.453404 9.06854
-0.406104 -0.198828 9.51686
-1.30956 -0.841825 11.2918
-0.0860106 -0.521245 9.51199
-0.0110035 -0.416594 8.89531
-1.4111 -0.830078 11.2547
-0.403582 -0.160356 8.40645
-1.32356 -0.808216 11.3143
-0.962799 -0.688941 10.6374
-1.58754 -0.920232 12.2348
-1.3594 -0.929156 12.323
-0.317064 -0.759405 11.4722
-1.65042 -0.939299 12.7021
-1.8108 -0.937012 12.8166
-1.5112 -0.858051 12.4173
-1.59082 -0.803378 12.057
-1.65426 -1.12279 14.6408
-0.483324 -0.801412 12.5124
-0.156718 -0.58858 10.7974
-1.45496 -0.778699 12.3326
-1.61323 -1.06913 14.9289
-0.633585 -0.731797 12.4883
-0.606683 -0.767452 12.8286
-0.0261948 -0.402103 9.649
-2.14073 -1.5416 24.7819
-1.00691 -0.956763 17.3366
-1.39837 -0.618781 13.065
-1.42351 -0.697028 14.3428
-0.216906 -0.550194 13.0379
-0.210894 -0.541434 13.4658
-1.39331 -0.495111 12.4355
0.0770448 -0.27739 9.24385
0.0570852 -0.284376 9.46405
-1.84778 -1.05969 28.7214
-0.477467 -0.20271 9.87158
-1.7555 -0.534964 20.8237
-1.43351 -0.370421 14.443
-0.508297 -0.266789 12.8836
-0.516987 -0.220718 11.4146
-0.266471 -0.612864 9.23402
-0.633536 -0.751644 15.5054
-1.39007 -1.00387 11.3204
-0.359131 -0.525549 9.26204
-0.339765 -0.513252 9.2756
-0.273586 -0.839648 11.2406
-0.2197 -0.702705 10.6483
-1.36243 -0.926075 12.1208
-1.46652 -0.758993 11.2223
-1.61674 -1.11897 14.1691
-0.0126905 -0.367953 8.89863
-1.5695 -1.01423 13.5099
-1.36193 -0.874313 12.6527
-1.65231 -0.784225 12.0364
-0.420476 -0.869641 12.7308
-1.48019 -0.71546 11.8354
-1.77566 -0.874905 13.2142
-1.6291 -1.09777 15.1966
-0.969803 -1.03553 14.7014
-0.692212 -0.780955 12.5641
-0.206176 -0.899415 13.587
-0.739458 -0.76342 12.5785
-0.38145 -0.766767 12.6249
-1.74392 -0.79032 12.9494
-1.43803 -0.724936 12.7369
-0.743484 -0.651025 12.4195
-1.63809 -0.678476 12.9981
-2.521 -1.51998 24.0346
-1.39313 -0.608158 13.0696
-0.0298608 -0.291299 8.92518
-1.66049 -0.609944 14.8283
-2.02299 -0.614549 15.7578
-0.889954 -0.896625 22.2354
-1.55013 -0.43169 13.5076
-0.756323 -0.479682 15.8187
-1.57356 -0.329849 11.5748
-0.473452 -0.206425 12.5101
-0.304716 -0.637049 9.31878
0.0174355 -0.551953 9.06821
-1.69208 -2.14466 14.2884
-2.22481 -1.87842 23.9792
-1.45338 -0.968808 18.7882
-0.709685 -0.153718 9.98688
-0.113157 -0.202617 9.05652
-1.46337 -0.849429 11.2825
-1.31612 -0.817805 11.2836
-1.20994 -0.829805 11.3405
-1.42124 -0.811148 11.2931
-1.53589 -0.946621 12.1461
-1.43407 -0.758903 11.1498
-1.42959 -0.798662 11.4206
-0.0446567 -0.389069 8.91075
-2.02745 -1.05352 13.0894
-0.233302 -0.795686 11.3807
0.0118947 -0.492937 9.5409
-1.55776 -0.829925 11.7514
-0.0171356 -0.502472 9.68522
-1.65519 -1.11838 14.2155
0.0529608 -0.547473 10.1308
-1.72161 -0.872587 12.6705
-0.507557 -0.779585 12.4739
-0.723223 -0.740786 12.5668
-0.307063 -0.748478 12.5805
-0.520573 -0.728064 12.5954
-0.024353 -0.381259 9.48956
0.0113572 -0.523986 11.0571
-1.70124 -0.663846 13.5194
-0.604556 -0.726555 14.5773
-0.0321173 -0.473146 11.2309
-1.32153 -0.446467 11.3096
-3.1545 -1.10987 21.5516
-0.039172 -0.376985 10.1131
-1.02651 -0.420591 11.3742
-0.42128 -0.5567 13.695
-1.31357 -0.479298 12.7506
-0.873362 -0.937044 20.8407
-1.12281 -0.349605 10.6718
-2.76142 -1.20039 30.1077
-1.98214 -0.762284 20.8198
-1.51919 -0.369846 12.4963
-0.375268 -0.417577 13.7067
-1.14595 -0.312982 11.3117
-0.220362 -0.379506 13.1276
-0.971981 -0.271883 10.307
-0.290348 -0.280096 12.7754
-0.848583 -0.22154 10.4461
-0.10098 -0.229264 8.99728
-0.8576 -0.189687 11.1399
-0.116897 -0.213685 9.04813
-1.71737 -0.0132339 17.8435
-0.404691 -0.135386 12.5952
-0.0414789 -0.475033 8.90455
-0.0435205 -0.429536 8.92005
-0.159501 -0.512313 9.13955
-2.36341 -1.59277 35.3319
-1.16949 -0.450472 18.3843
-0.312413 -0.487083 9.12069
-1.33409 -1.00326 11.3306
-0.269203 -0.459277 9.16677
-0.886635 -0.648034 10.2137
-2.04613 -1.77633 15.9463
-0.205866 -0.783557 11.0945
-0.141035 -0.454255 13.6661
-0.0689456 -0.463054 9.53524
0.0380198 -0.404385 9.45028
-1.54614 -0.831249 13.5208
-0.373488 -0.72347 12.533
-0.265413 -0.736684 12.8994
-0.076242 -0.432091 9.95131
-2.68262 -1.9111 25.9952
-1.43519 -0.605561 12.4738
-0.963701 -0.485066 11.0335
-1.8165 -0.644637 13.1057
-2.41709 -1.43408 22.5235
-2.45958 -1.5363 24.099
-0.975341 -0.468327 11.5581
-1.59481 -0.945549 18.3703
-0.110727 -0.640278 13.7071
-0.0924158 -0.242975 9.08572
-0.637539 -0.381927 15.5922
-0.990711 -0.605585 14.3639
0.00606755 -0.326421 9.51147
-1.68722 -0.614045 14.9561
-0.310973 -0.467271 12.0297
-0.0753592 -0.344004 9.94662
0.0469339 -0.321033 9.74002
-0.156227 -0.538808 14.7838
0.080159 -0.306743 9.55931
-0.423514 -0.467248 13.8422
-0.203261 -0.518205 9.44973
-0.300046 -0.781667 11.5094
-1.68608 -1.15756 14.2702
-0.184908 -0.682352 11.1034
-0.239695 -0.636724 10.9642
-0.20024 -0.595786 10.7831
-0.713954 -0.785273 12.4547
-1.64857 -0.752103 13.5805
-0.161309 -0.467365 11.0241
-1.73382 -0.616379 13.5654
-1.77079 -0.613586 13.8355
-0.641741 -0.784519 15.6797
-0.161231 -0.366102 10.7452
-0.56014 -0.428176 14.1356
-0.689999 -0.349974 14.67
-0.0690208 -0.271226 9.97818
-0.552589 -0.259862 11.1346
-0.4725 -0.253886 10.9024
-0.371126 -0.171588 9.95415
-0.344597 -0.16721 10.1081
0.0462173 -0.287229 9.72464
-3.09288 -2.90681 17.9784
-1.16427 -0.781976 11.1057
-0.220519 -0.752178 11.1855
0.045253 -0.614659 10.3733
-0.311543 -0.745654 11.2993
-1.4503 -0.8308 12.233
-1.7189 -1.07668 13.8816
-1.88621 -0.932134 13.0651
-1.79706 -0.944695 13.1908
-1.66114 -1.12859 14.6857
-1.53716 -0.809841 12.5451
-1.65672 -1.02196 14.037
-2.26538 -1.02743 14.3737
0.0383232 -0.530508 10.3659
-2.11162 -1.26996 16.4177
-0.0962594 -0.523985 10.4094
-0.232284 -0.557725 10.7275
-0.105849 -0.517452 10.3941
-0.349242 -0.747846 12.4439
0.0342028 -0.459903 10.031
-1.59522 -0.725987 12.6443
-2.42065 -1.3801 18.3737
-1.58069 -1.04349 15.6044
-0.611785 -0.712765 12.499
-1.71579 -0.760736 13.289
-0.654959 -0.712635 12.6611
0.0271198 -0.547573 11.0009
-1.92574 -0.738256 13.3259
-0.152563 -0.691579 12.7373
-2.37577 -1.77774 24.7406
-0.20842 -0.660983 12.8119
-6.33556 -3.01582 40.6847
-0.604582 -0.616924 12.5609
-1.94376 -0.616659 13.2181
-1.47604 -0.597866 13.0612
-2.03739 -1.37713 22.9795
-1.96076 -0.59993 13.5145
-2.91496 -2.86374 43.3633
-1.53263 -0.546706 13.4706
-1.7363 -0.725467 16.2324
-1.1591 -0.729098 16.5257
-1.40717 -0.445122 13.4502
-0.838993 -0.552294 15.388
-0.0650735 -0.295497 9.52483
-1.61974 -0.434367 14.4197
0.00725925 -0.334828 10.8194
-0.45432 -0.185309 9.72929
-0.546126 -0.490556 16.8582
-0.287158 -0.189161 9.50439
-0.27969 -0.239402 13.7515
-0.326791 -0.223583 10.8993
-0.53826 -0.489812 18.1505
-1.82655 -1.18045 26.3648
-1.33878 -0.560319 11.3186
-1.28144 -0.933423 11.2417
0.105309 -0.711917 10.6406
-1.58902 -1.06509 13.7171
-0.188868 -0.631869 10.9269
-1.30839 -0.838785 12.5483
-2.75047 -1.89206 20.1961
-0.599247 -0.77133 12.483
-0.620365 -0.72205 12.4811
-1.5358 -0.831175 13.6902
0.0124363 -0.42536 10.0973
-1.67881 -0.686276 13.0701
-0.740529 -0.654441 12.4882
-1.72466 -0.68573 13.1669
-1.49723 -0.6818 13.1483
-0.444246 -0.652376 12.5306
-0.481152 -0.632538 12.7684
-1.44696 -0.610602 13.2877
-0.0807662 -0.368287 9.94802
-1.39846 -0.382988 11.7504
0.021231 -0.323815 9.86606
-0.254469 -0.373248 13.4897
0.0458784 -0.278702 10.3074
-0.396788 -0.200456 13.0417
-0.0366706 -0.456189 10.0846
-0.0401471 -0.668055 10.5012
-1.26543 -0.858537 11.5069
-0.250099 -0.804283 11.2346
-1.55595 -0.912789 12.2241
-0.30717 -0.669583 11.1534
-1.65662 -1.11348 14.2101
-0.265352 -0.242063 12.7929
-1.46165 -0.769408 12.3503
-1.87647 -0.862335 13.1574
-1.41436 -0.767857 12.4318
-0.294915 -0.617321 11.2049
-1.75226 -0.896666 13.4324
-0.548539 -0.790131 12.4748
-0.234572 -0.605944 11.1506
-0.601739 -0.345425 14.2823
-0.183785 -0.51913 10.6842
-0.804746 -0.775748 12.766
-0.457666 -0.7709 12.6588
-0.115196 -0.472987 10.3804
-0.0884856 -0.417309 9.95081
-0.44779 -0.745208 12.5831
-0.279382 -0.840143 13.2821
-1.43846 -0.678024 12.4488
-1.28987 -0.754086 13.1067
-1.57261 -0.805203 13.6758
-0.671598 -0.689676 12.5005
-0.220761 -0.745495 12.8668
-0.317837 -0.688754 12.6858
-1.78703 -0.742128 13.9077
-2.48606 -1.83577 24.7333
-1.5904 -0.879029 15.3195
-2.82018 -1.84266 25.5563
-2.33098 -1.6431 24.0337
-0.580566 -0.601967 12.6161
-0.145118 -0.454132 11.0484
-1.30908 -0.745639 15.2446
-1.51637 -0.904153 17.7457
-1.43422 -0.556024 13.2746
-0.473909 -0.289611 12.3698
-1.14797 -0.702917 15.7296
-1.57517 -0.533802 13.7146
-1.52377 -0.417477 13.841
-1.56683 -0.660908 22.9603
0.0605701 -0.492377 10.1568
0.0666382 -0.477456 10.1888
-0.082801 -0.344072 9.94297
-0.206766 -0.85825 11.1772
-0.246679 -0.79325 11.2388
7.4354 5.98064 71.5085
-1.40876 -0.958008 12.3057
-0.27728 -0.722856 11.1326
-0.0936521 -0.562491 10.4222
-0.226473 -0.697594 11.1172
-0.0976401 -0.55497 10.4158
-1.43404 -0.907193 12.48
-0.282107 -0.660485 11.2174
-1.37873 -0.814144 12.2324
-0.462639 -0.806545 12.4216
-1.65456 -1.07895 14.2944
-1.63885 -1.09643 14.4052
-0.263389 -0.631999 11.336
-1.93902 -1.27145 15.817
-1.64074 -1.12295 14.806
-0.39 -0.824192 12.7252
-1.5514 -0.79089 12.6372
-1.63132 -0.990963 13.9948
-1.48293 -0.72657 12.3394
-1.64427 -0.940584 13.9319
-0.0748531 -0.521014 10.8119
-0.674572 -0.722804 12.4559
-0.636162 -0.720567 12.4908
-0.295554 -0.656136 11.974
-0.272929 -0.748099 12.6703
-0.100316 -0.757515 12.9804
-0.783197 -0.692479 12.5733
-0.650395 -0.68506 12.5007
-0.509385 -0.692494 12.6117
-0.721135 -0.707485 12.8228
-0.525682 -0.671651 12.5001
-0.432875 -0.656 12.3585
-0.525475 -0.682475 12.6574
-1.39313 -0.626356 12.3732
-1.47197 -0.794587 14.081
-1.49276 -0.8549 14.7564
-2.28372 -1.81441 23.9535
-1.52699 -0.680572 13.1861
-0.537618 -0.632351 12.6179
-2.81836 -1.79398 24.4132
-1.64491 -0.608062 12.643
-0.32898 -0.632609 12.7512
-1.74325 -0.646738 13.221
-1.3301 -0.712365 13.8659
-1.60541 -1.56412 23.4828
-0.541393 -0.595085 12.7082
0.0527636 -1.12225 18.4348
-0.505965 -0.630194 13.1861
-0.0590988 -0.561085 12.4375
-0.327316 -0.22394 11.9217
-1.72484 -0.598186 13.1645
-1.71493 -0.55459 13.4058
-10.4546 -7.10476 113.515
-0.597206 -0.780808 16.9088
-0.0715189 -0.506964 12.7101
-0.258197 -0.482323 13.4952
-1.54445 -0.380016 12.6266
-0.128825 -0.446135 13.9876
-1.45522 -0.441551 14.5244
-0.384421 -0.434332 14.3281
-0.527563 -0.449191 16.6804
-0.370311 -0.345618 12.5962
-0.150511 -0.277956 10.7719
-0.260528 -0.284942 12.4381
-0.239045 -0.24774 14.2126
-6.76623 -3.34393 64.6049
-0.21186 -0.755595 10.9912
-0.160325 -0.670459 10.9258
-0.266656 -0.704575 11.1547
-1.37628 -0.911518 12.2618
-0.187687 -0.667305 11.0972
-1.38972 -0.882677 12.385
-0.296756 -0.634904 11.2174
-0.47311 -0.824591 12.6264
-0.363924 -0.806747 12.5159
-1.63979 -1.16035 14.8675
-0.679992 -0.813555 12.6457
-1.63535 -1.038 14.2139
-1.35238 -0.78527 12.5924
-0.644066 -0.775469 12.5374
-0.229348 -0.80702 13.1456
-0.181165 -0.529531 11.0872
-1.6843 -1.15118 15.7762
-0.770695 -0.73492 12.6555
-1.55691 -0.867069 13.7823
-1.67958 -0.749163 13.0526
-0.716389 -0.633088 12.6612
-1.48517 -0.671957 13.0953
-1.81424 -0.704542 14.11
-1.64787 -0.65354 13.9905
-1.80237 -0.576332 13.2299
-1.24555 -0.767866 15.9654
-1.72417 -0.667359 15.4696
-0.138862 -0.364154 10.9317
-2.35802 -2.56498 52.309
0.541074 0.383077 12.5099
-1.66298 -0.438219 13.6089
-0.691545 -0.724104 21.0098
-1.52656 -0.378092 12.4258
-2.8687 -1.21884 40.0413
-0.297042 -0.265132 12.3169
-1.65853 -0.424064 15.1553
-1.39408 -0.420425 15.0451
-3.11827 0.474677 18.9143
-0.332739 -0.329667 11.9762
-0.825214 -0.337395 13.2792
-0.325061 -0.309884 12.3891
-0.366353 -0.307534 12.6885
-0.296105 -0.769469 11.2761
-0.296737 -0.664487 12.0861
-0.0986044 -0.396877 10.3823
-10.9991 -9.41264 166.185
-0.574793 -0.306028 13.1463
-1.40898 -0.893719 12.4144
-1.33486 -0.862451 12.2579
-1.27755 -0.762606 12.0438
-1.36161 -0.819836 12.3995
-0.398814 -0.8181 12.7176
-0.783645 -0.802531 12.7514
-0.181921 -0.804858 12.7716
-1.74445 -1.12677 14.9213
-0.511153 -0.759876 12.5205
-0.33244 -0.78481 12.6859
-0.300888 -0.774385 12.6177
-0.462345 -0.762706 12.5843
-0.576034 -0.296973 13.0266
-1.64418 -0.965692 14.3422
-1.72286 -1.18847 15.9575
-0.743811 -0.728747 12.6321
-1.64237 -0.886746 13.8375
-0.793648 -0.719386 12.6135
-0.527864 -0.711814 12.611
-0.231565 -0.741504 12.8916
-0.63638 -0.68501 12.5092
-0.122098 -0.456631 10.7775
-0.747467 -0.715727 12.8586
-0.518196 -0.668052 12.535
-1.55048 -0.366498 14.539
-0.670997 -0.649298 12.545
-0.32522 -0.328862 12.3777
-0.426108 -0.643129 12.7383
-0.180535 -0.663735 12.9301
-2.14756 -1.82524 23.8087
-0.716902 -0.624064 12.6887
-0.636471 -0.575556 12.2875
-0.231932 -0.647992 13.0713
-2.35364 -1.84941 25.2505
-2.44875 -1.54126 23.9568
-2.89338 -2.28541 32.524
-0.33797 -0.564291 12.8189
-0.200899 -0.557197 13.1098
-1.55202 -0.526818 13.9356
-1.56791 -0.475272 13.3126
-0.230502 -0.463086 13.1184
-2.00566 -1.12413 31.9942
-1.60435 -0.451927 14.8306
-1.57089 -0.424592 14.6782
-1.16269 -0.498816 18.474
-0.531148 -0.443408 16.3463
-0.524621 -0.437441 16.7087
-1.24801 -0.485201 8.94786
0.0201806 -0.262638 7.10591
-1.22446 -0.251186 8.93069
0.147455 -0.952567 9.01929
-1.41387 -0.761735 9.72751
0.0259604 -0.380243 10.2093
-1.02929 -0.258625 9.67078
-1.46867 -0.233031 10.0111
-0.429702 -0.152918 8.13284
-0.12514 -0.731182 9.41338
-1.33781 -0.748631 9.6913
0.0585432 -0.44395 9.20908
-0.327695 -0.452123 15.5598
-0.0804072 -0.878114 9.23557
0.270584 -0.796147 8.93365
0.0981575 -0.808404 9.05683
-2.13967 -1.44862 38.0605
-1.98398 -0.651734 13.324
-1.27667 -0.727965 9.70518
0.0649804 -0.390325 9.20886
-1.5889 -0.324586 11.0648
-0.0610479 -0.845825 9.4905
-0.21305 -0.69637 9.32946
-0.104689 -0.624652 9.41455
-0.232044 -0.181207 9.10073
-0.118309 -0.811416 9.2408
0.0938993 -0.766641 9.07263
-0.175907 -0.754553 9.22679
-1.22928 -0.799748 9.86183
0.173338 -0.631024 8.94148
-0.396247 -0.605175 8.94782
-0.290327 -0.649312 9.24705
0.0880607 -0.52876 9.12853
-0.348796 -0.583354 8.92278
-0.478189 -0.553379 8.88444
-2.47137 -0.711851 13.3427
-0.164554 -0.520574 8.90356
-0.277981 -0.236261 11.2463
0.0868832 -0.284104 9.2358
-1.82528 -0.700082 12.1439
-1.34528 -0.957861 11.3099
-1.256 -0.891641 11.386
-1.60082 -0.459674 13.0286
-2.36346 -1.92352 29.5354
-1.58814 -1.06132 14.8274
-1.64458 -1.13715 14.8594
-1.87401 -1.29484 17.1417
-0.323744 -0.278415 12.4074
-3.38064 -3.02959 60.8102
-1.37781 -0.716708 14.5346
-1.56907 -0.658131 18.3302
-1.80689 -0.690682 18.5185
-0.540625 -0.787797 12.4895
-0.121883 -0.438215 10.7946
-0.521534 -1.0003 12.3925
-0.0530606 -0.846247 12.5099
-1.65782 -1.16673 14.1547
-0.620677 -0.799024 12.4569
-0.538514 -0.784421 12.4636
-0.300119 -0.816884 12.6284
-0.161778 -0.840726 12.8505
-0.447568 -0.784172 12.6129
-0.256638 -0.805352 12.7253
-0.787855 -0.775153 12.6739
-0.58007 -0.756157 12.5556
-0.198628 -0.853128 13.1064
-0.0740695 -0.743409 12.4627
-0.588593 -0.734032 12.5248
-0.819199 -0.749181 12.6607
-0.751969 -0.748623 12.6546
-0.0657887 -0.718829 12.4458
-0.6597 -0.726912 12.5529
-0.673286 -0.709178 12.5853
-0.628658 -0.701037 12.5674
-1.58465 -0.914779 14.079
-0.211328 -0.831038 13.459
-0.802843 -0.691312 12.6255
-0.224474 -0.746419 12.9798
-1.62064 -0.875866 14.1809
-0.570575 -0.664351 12.5873
-0.414129 -0.670227 12.6229
-1.47188 -0.782979 13.6695
-1.60066 -1.05156 15.7287
-0.211623 -0.785696 13.8842
-0.424376 -0.606675 12.5754
-0.161616 -0.632507 12.8359
-0.168572 -0.6548 13.151
-0.528016 -0.59011 12.7507
-0.275722 -0.569229 12.6469
-0.386686 -0.545994 12.5342
-1.98854 -1.16366 20.1697
-0.651935 -0.959087 17.6876
-3.03411 -0.831266 17.0746
-1.5224 -0.542402 13.4244
-1.65972 -0.647566 14.8635
-1.38493 -0.508121 13.0371
-1.37843 -0.316421 13.1058
-0.210538 -0.492145 12.9794
-1.51741 -0.546653 14.2187
-1.37037 -0.440457 13.0111
-1.44773 -0.585408 16.9972
-1.78209 -0.585687 17.8157
-0.178494 -0.41995 13.4889
-1.56154 -0.406911 14.1
-1.36484 -0.462505 15.8586
-0.185071 -0.299972 12.4572
-1.34072 -0.436048 15.3652
-1.3328 -0.401957 14.9058
-0.729733 -0.323288 13.9922
-1.332 -0.384481 15.0714
-1.54887 -0.351602 13.9637
-0.513598 -0.332071 12.8819
-1.23203 -0.318184 12.3355
0.173163 -0.398429 7.05166
0.0691349 -0.748081 7.03477
-0.0206297 -0.761513 7.12175
0.226728 -0.334938 6.17983
0.25377 -0.335591 6.3418
0.267885 -0.338129 6.41365
0.247961 -0.311724 6.25073
-0.0112481 -0.699692 7.12429
0.0732615 -0.482154 6.41398
0.110283 -0.474461 6.42475
0.245141 -0.486623 8.80141
-2.03718 -0.660734 12.9592
-1.54931 -0.268466 8.80573
-1.18495 -0.255114 9.17112
-0.140668 -0.718227 7.22516
-0.14801 -0.643818 7.09231
-0.0372174 -0.142378 6.0338
-1.2717 -0.703676 10.0966
-0.0787483 -0.108322 6.21531
0.366888 -0.337087 7.32983
0.0109861 -0.227686 7.10974
-0.0752376 -0.629865 7.11422
0.0554708 -0.368714 6.42135
-0.933432 -0.492328 7.55328
-1.48998 -0.298517 11.7079
-1.2914 -0.785417 11.0921
-2.74856 -0.940529 13.2982
-0.0331137 -0.472605 9.05021
-1.49602 -0.259192 9.03445
0.128887 0.562854 8.20749
-1.50477 -0.314654 9.5735
-0.253751 -0.0527061 7.74504
0.393203 -0.279853 7.33599
0.295235 -0.385473 7.34461
0.281875 -0.733223 8.85266
-1.67538 -1.7778 28.5889
-0.191031 -0.131691 7.67066
0.312788 -0.470817 8.9082
-0.74142 -0.209287 9.06157
0.0921011 -0.313369 8.18195
0.280572 -0.548233 8.83891
-1.79176 -0.666864 13.5931
-0.483285 -0.137499 7.87653
-0.202286 -0.113612 7.72062
-1.90506 -1.00459 13.5649
-1.31734 -0.226908 9.55695
0.0777084 -0.622999 9.394
-1.23948 -0.787531 9.74761
0.0899572 -0.638425 9.44901
-0.578523 -0.706256 9.4769
-1.73013 -0.834519 12.1568
0.342142 -0.499974 8.95031
-0.0496813 -0.819448 9.32272
-0.506411 -0.550207 8.88423
-1.35945 -0.645342 12.2287
-1.48509 -0.835675 13.24
-0.945673 -1.42653 13.3719
-1.58965 -1.32599 26.5457
-1.46431 -0.570182 13.1068
-0.285138 -0.66312 11.2686
-0.15659 -0.622823 11.1871
-0.152805 -0.612393 11.2048
-0.161174 -0.600686 11.1988
-0.302746 -0.604597 11.2377
-1.27841 -0.804678 12.3178
-0.116342 -0.467264 11.1492
-1.19194 -0.260272 12.4046
-1.67436 -0.764069 13.4795
-0.148607 -0.414255 11.1081
-0.0836289 -0.417675 12.4455
53.031 43.5348 227.183
-0.608959 -0.0374601 11.8312
-10.8772 -11.7632 52.9522
-0.623744 -0.262896 12.0348
-1.61593 0.103784 48.387
-0.19147 -0.333713 12.9783
-0.320095 -0.29508 12.4855
-0.0353608 -0.683231 11.7414
-0.0416343 -0.672521 11.777
-0.508675 -0.806601 12.5237
-0.33172 -0.835268 12.6611
-0.295348 -0.835411 12.661
-1.68607 -1.06082 13.8867
-0.759057 -0.823748 12.669
-0.248641 -0.802706 12.5776
-0.409632 -0.799506 12.6206
-0.583403 -0.777409 12.5374
-0.35093 -0.76292 12.5101
-0.325417 -0.796088 12.6877
-0.696456 -0.776653 12.6222
-0.0901242 -0.772358 12.77
-0.239952 -0.831021 13.1928
-0.554379 -0.357284 13.6944
-1.57975 -0.952834 14.1638
-0.610276 -0.709371 12.6413
-1.81411 -1.29976 16.5151
-0.765593 -0.691791 12.5684
-1.75468 -1.20622 16.072
-1.4284 -0.357645 13.9694
-0.599037 -0.449369 17.1107
-0.0645411 -0.638261 12.2935
0.115736 0.314927 14.4213
-0.0521317 -0.567889 11.8472
-0.311868 -0.645981 12.4919
-0.640637 -0.643182 12.5208
-0.0290214 -0.553519 11.8537
-0.0380859 -0.338181 11.878
-1.3811 -0.817148 13.8563
-1.38912 -0.396583 14.5464
-0.330131 -0.656069 12.6823
-0.691277 -0.641795 12.6303
-0.0452931 -0.589241 12.2455
-1.44429 -0.733878 13.4595
-0.20256 -0.380639 13.3579
-1.70114 -1.05336 16.0473
-0.634349 -0.604984 12.5077
-0.574164 -0.634399 12.7412
-0.0397417 -0.582969 12.3071
-1.70335 -1.04375 16.172
-0.173534 -0.662937 13.0037
-1.28341 -0.523041 18.919
-2.95603 -1.91674 24.0467
-0.0134666 -0.513651 11.8752
-0.698716 -0.584648 12.6072
-0.62364 -0.566334 12.4409
-1.35807 -0.620189 13.0086
-2.17318 -1.88875 24.5399
-3.09638 -1.81959 24.2201
-0.655637 -0.571383 12.5825
-0.528949 -0.59797 12.8219
-0.514822 -1.2887 19.1976
-0.270897 -0.576409 12.6107
-0.113658 -0.634442 13.1391
-1.61053 -0.672912 21.1747
-0.312274 -0.68518 13.687
-0.0489302 -0.599153 12.9218
-2.67394 -1.76425 24.5131
-0.577823 -0.564103 12.7195
-1.54963 -0.732249 14.5416
-1.6146 -0.456893 14.9701
-2.25934 -1.8583 27.519
-2.96675 -2.72574 37.838
-0.672416 -0.647998 14.0638
