# .PCD v.6 - Point Cloud Data file format
FIELDS x y z
SIZE 4 4 4
TYPE F F F
COUNT 1 1 1
WIDTH 1752
HEIGHT 1
#VIEWPOINT 0 0 0 1 0 0 0
POINTS 1752
DATA ascii
0.0307747 -0.0302567 3.8002
0.0795685 -0.444223 4.38103
0.00722608 -0.583095 4.92998
0.0117222 -0.574306 4.89766
-4.8318 -3.59418 38.3173
-0.264095 -0.158831 7.09939
-0.00585337 -0.543413 4.89164
0.0114407 -0.551516 4.93728
0.186875 -0.493794 4.90799
0.19249 -0.492834 4.91994
-0.011683 -0.454742 4.85134
0.210473 -0.548855 5.30956
-0.0566913 -0.454278 4.90234
-0.00544469 -0.774855 6.49077
0.109597 -0.460555 4.98339
0.18888 -0.448057 4.91832
0.00467587 -0.77806 6.7614
0.211799 -0.506074 5.34494
-1.20183 -0.703622 6.48093
-0.0469489 -0.0411465 4.4211
0.108624 -0.2896 4.37462
0.185844 -0.427704 5.28304
-0.982425 -0.602421 6.48146
0.297768 -0.815339 8.13444
0.107136 -0.753581 7.99011
0.0940371 -0.328295 4.91198
0.102981 -0.319068 4.95504
-0.0903832 -0.673369 7.91183
-0.299527 -0.0491982 6.00835
-0.034769 -0.694415 8.43372
-1.14102 -0.894502 10.3598
-1.16726 -0.747442 9.2772
-1.19278 -0.800411 9.89333
-1.20762 -0.685897 9.04495
-1.27574 -0.656278 8.87345
-0.266067 -0.599372 8.7074
-1.0744 -0.679339 10.0785
0.0665452 -0.333989 6.07544
0.0829792 -0.210172 4.96356
-1.58677 -0.654429 11.8839
0.0963296 -0.194825 4.89816
0.242248 -0.249642 5.77315
-1.30765 -0.425487 8.92693
-0.916858 -0.537113 10.7618
-1.58839 -0.571833 11.9984
-1.3077 -0.287836 8.71745
-0.0571422 -0.32934 10.0504
-1.3528 -0.248658 8.23214
-1.30211 -0.175478 8.79674
-1.22116 -0.118437 6.74724
0.387562 -0.253325 3.49967
-0.844467 -0.566315 3.65739
-1.09491 -0.163874 4.40353
0.0748448 -0.579224 3.89485
0.185438 -0.335072 3.10927
-0.345318 0.42892 3.30795
0.383282 -0.267475 3.51576
0.122075 -0.356682 4.38492
0.0713674 0.00370932 2.2771
0.332818 -0.248246 3.76571
0.0806744 -0.0749242 2.31274
0.0826944 -0.0548468 2.24869
0.0927494 -0.0549156 3.12039
0.203323 -0.392639 3.06748
0.232526 -0.384279 3.04342
0.194862 -0.391138 3.09078
-0.788084 -0.53053 3.80077
0.156027 -0.469812 3.68451
-1.12473 -0.470751 4.69762
0.069312 -0.000474432 2.29246
0.404383 -0.200016 3.22877
0.419509 -0.192346 3.22218
0.0648726 -0.0118655 2.4162
-0.221042 0.030111 3.41325
-1.44321 -0.392827 8.67396
0.262249 -0.320421 3.02581
0.0498386 -0.605817 4.89022
-0.00967537 0.0556978 3.00761
-0.996792 -0.381964 4.98606
-0.233215 -1.1041 5.75357
-1.00324 -0.177488 5.68787
0.118644 -0.0550375 3.1249
-2.12698 -0.632278 11.8453
0.142062 -0.626671 6.40845
-0.842263 -0.0931854 4.73452
0.127977 -0.256039 4.38503
0.109828 -0.378102 9.59789
0.100955 -0.169381 4.30476
0.00367697 -0.671006 4.38925
-1.01867 -0.721633 4.93855
-1.22107 -0.640631 8.65878
0.147653 -0.278508 3.20854
-1.09672 -0.49832 6.5939
0.0257666 -0.0749232 3.51525
-0.999268 -0.288279 4.97131
0.0531391 -0.606549 4.36185
0.357712 -0.259115 3.78095
-0.832028 -0.0844097 4.59032
0.261855 -0.455791 5.36539
0.110779 -0.344574 4.38283
0.282721 -0.188135 4.32122
-0.987245 -0.159178 5.13946
-0.0434093 -0.572639 4.73221
-0.874583 -0.592675 4.91972
0.00883492 -0.123313 4.31478
-0.0263251 -0.65759 6.67448
-1.16652 -0.216183 6.03161
0.102204 -0.417134 5.00848
-0.958886 -0.422921 7.15807
-0.604391 -0.75227 11.9832
-0.0960099 -0.775467 6.54194
-1.22672 -0.914228 10.4016
-1.0256 -0.094036 6.64099
-1.15167 -0.625426 6.5278
-1.16323 -0.641524 6.49169
-1.13233 -0.711425 6.48067
-1.5162 -0.699621 11.8779
-1.32216 -0.630101 11.7589
-0.0558658 -0.651031 6.80261
-0.146326 -0.685612 8.62779
0.195873 -0.571196 5.27946
-0.0511857 -0.471613 4.93675
0.0939749 -0.465471 4.90894
0.252448 -0.4651 5.18358
-0.014921 -0.41938 4.99076
0.0519564 -0.746654 6.63453
-0.0109229 -0.70613 6.59477
0.0944577 -0.34311 4.92702
-1.63793 -0.707926 7.90476
-0.0254352 -0.673728 7.85863
-0.00886127 -0.492222 6.62563
-0.134473 -0.705279 8.57832
-0.0361733 -0.392563 6.08954
0.260566 -0.274581 5.06461
-1.0656 -0.770721 9.93641
0.254844 -0.266221 5.07966
-0.825947 -0.602898 8.52574
-2.89071 -0.902489 13.1371
0.092304 -0.211824 4.91064
-1.38364 -1.97836 30.2193
-1.61661 -0.64816 11.8879
-1.60409 -0.574754 12.1026
-1.26484 -0.57069 13.8808
-0.00521764 -0.131194 4.40146
-1.40031 -0.277007 8.69734
-1.45243 -0.6735 19.675
0.0324734 -0.313024 9.53709
-0.272533 -0.0254117 4.64051
0.0506073 -0.159717 5.82997
0.0156633 -0.144088 5.78731
-0.0179272 -0.114621 4.55245
-0.274023 -0.14737 7.48343
-0.0202463 -0.100223 4.44443
-0.0605997 -0.0957761 5.55669
-0.184289 -0.0865036 5.65567
0.0592587 -0.373945 4.99061
0.261206 -0.119175 4.89041
0.0593021 -0.0763418 4.38006
-0.0105415 -0.0495086 4.42202
-0.0144488 -0.0704197 4.41687
-0.0374488 -0.817893 6.51845
0.307706 -0.478242 5.2715
0.0754696 -0.483469 5.32726
-0.0863387 -0.756853 6.56077
-1.11073 -0.785956 6.76116
0.295934 -0.467443 5.2983
-0.00785377 -0.738329 6.55656
-1.0125 -0.712256 6.58859
-0.466636 -0.2079 9.84439
-1.02999 -0.659967 6.53532
0.2462 -0.388032 5.25274
-0.975019 -0.52609 6.32146
-4.29413 -3.29501 24.5015
-1.04577 -0.485529 6.38185
-0.0312979 -0.389895 5.81471
-1.13092 -0.728335 8.93566
-1.06625 -0.764466 9.87569
-0.145874 -0.708116 9.55745
-1.28003 -0.639848 9.01981
-0.605209 -0.659707 9.20475
-0.559551 -0.552294 8.53258
-0.0768813 -0.521071 8.18669
-1.20076 -0.580693 9.08947
-1.37044 -0.638327 10.9078
-0.00384199 -0.375763 7.56465
0.149885 -0.428767 8.31523
-1.20325 -0.427407 8.61064
-0.171841 -0.521218 10.6493
-0.5878 -0.526316 12.5468
-1.17642 -0.230834 6.80319
-1.32016 -0.284246 8.08234
-0.118574 -0.387141 10.5063
-0.0259068 -0.422623 11.3509
-1.49315 -0.678832 18.9955
-1.27659 -0.263352 8.25143
-0.0182605 -0.158108 5.75385
0.0149863 -0.154076 5.76303
-1.41049 -0.547003 24.4299
-0.578533 -0.166198 7.97142
-0.00148009 -0.130727 5.65037
-0.0722374 -0.050455 5.11292
-0.0444001 -0.128633 5.80117
-1.08215 -0.133605 6.69275
-1.24422 -0.109456 6.89846
-1.00706 -0.102846 6.75886
-0.307636 -0.0684125 5.26538
-0.154867 -0.0682092 5.27972
-0.136357 -0.0437397 6.56751
-0.0696355 -0.0733372 5.01197
-0.268579 -0.04857 5.66234
-0.0254661 -0.0627367 4.8976
-1.20307 -0.563681 13.3412
0.0938426 -0.329359 4.91021
0.0865723 -0.39297 4.90796
1.04763 -2.31495 12.1304
0.34404 -0.520264 5.37474
-0.288518 -0.536883 12.0929
0.257531 -0.47778 5.3098
0.0374691 -0.764399 6.63647
0.0590424 -0.386291 4.98298
0.0256764 -0.744293 6.6256
-0.993094 -0.665313 6.46101
-0.114108 -0.683155 6.53142
0.0953511 -0.353997 4.98495
0.309674 -0.418602 5.33255
-0.191942 -0.0385968 5.20028
0.0864873 -0.32768 4.95243
0.0803608 -0.315744 4.8884
-0.0695502 -0.736129 8.35874
-1.11037 -0.692086 8.7179
-0.983043 -0.5863 7.971
-0.186616 -0.668023 8.66522
-0.158325 -0.674391 8.71999
0.028071 -0.336922 5.78322
-2.90437 -1.05048 12.1924
-2.832 -1.03074 12.1669
0.192105 -0.432915 6.71942
-0.148581 -0.659723 8.86333
-0.886436 -0.42907 6.81892
-1.28018 -0.653443 9.02514
0.0407414 -0.331036 5.92454
0.0407769 -0.326639 5.9249
-0.083124 -0.529109 8.06613
-0.0819994 -0.517917 8.13327
-0.00587025 -0.412905 7.02347
-1.15392 -0.733369 10.576
-2.19571 -1.72555 21.6902
-0.349132 -0.512454 8.27544
-1.11629 -0.557427 8.90324
-1.15001 -0.592917 9.43419
0.240422 -0.241769 5.35047
-2.2462 -0.693861 10.788
-1.3368 -0.75771 11.5222
-1.9474 -1.21288 17.2383
-1.41246 -0.896534 13.6384
-0.130034 -0.454878 8.61784
-1.17791 -0.414327 8.33995
-1.50387 -0.557081 10.4357
0.202968 -0.406308 8.32497
0.364118 -0.302214 6.75206
-1.53686 -0.564155 12.0087
-0.345182 -0.611943 14.3605
0.558056 -0.276222 7.87678
-0.934196 -0.709147 19.7821
-1.44353 -0.226419 7.97608
-0.40956 -0.247118 8.98728
0.0131116 -0.153394 5.74369
-0.29935 -0.163657 6.60644
-1.19578 -0.154566 6.79948
-0.825661 -0.165928 8.52037
-0.301854 -0.150364 7.3387
-0.201236 -0.146503 7.04756
-1.0594 -0.141446 9.15434
-0.225135 -0.1239 6.71897
-0.437306 -0.111112 6.56085
-0.332753 -0.106124 7.02019
-0.141033 -0.0459041 6.40749
0.240121 -0.522814 5.40691
-0.0058554 -0.138549 4.51801
-0.0196697 -0.0678829 4.56559
-0.294691 -0.847755 6.67251
0.0286921 -0.81155 6.70256
0.251939 -0.477887 5.36363
0.249829 -0.441449 5.28664
-1.08791 -0.712309 6.56337
0.0855752 -0.331033 4.90438
-0.92287 -0.657174 6.50416
0.236263 -0.389588 5.25764
-0.0383899 -0.584736 6.23561
0.379128 -0.907695 8.34925
0.133065 -0.367315 5.35583
-0.946585 -0.558035 6.48276
0.019787 -0.847649 8.60926
0.112579 -0.603367 7.27042
-0.0791727 -0.728616 8.65415
0.0895017 -0.558585 7.40418
0.0817006 -0.229511 4.895
-0.189496 -0.669338 8.72931
-1.22891 -0.682648 9.04602
-0.977229 -1.07775 12.5534
0.0949474 -0.219808 4.90063
-0.104343 -0.633674 8.85409
0.216615 -0.387754 6.64072
-0.0154718 -0.420644 7.03005
-0.187789 -0.755863 10.5097
0.221352 -0.303743 5.90013
-1.12209 -0.555893 8.80134
-2.73619 -0.925238 13.707
-1.68709 -0.60925 9.9235
-1.12424 -0.740167 11.849
-0.691848 -0.655819 10.9634
-0.24045 -0.00753264 7.65723
-2.03664 -1.35867 20.4351
0.314655 -0.338939 7.13019
-1.90101 -0.682791 12.4515
-2.53783 -0.705829 13.0827
-1.5511 -0.684009 12.723
-1.4008 -0.483362 10.4843
-0.502639 -0.614928 12.7339
-0.00579785 -0.0726946 5.33077
0.00979946 -0.34658 8.5674
-1.71716 -0.447073 11.1362
-1.24399 -0.573601 13.776
-1.33741 -0.274512 8.24135
-1.31512 -0.323692 9.78726
-1.36274 -0.26242 8.39896
0.217925 -0.201241 6.60862
0.0248363 -0.196152 6.63092
-1.32844 -0.225083 8.06011
-1.49807 -0.469163 18.3724
0.0231167 -0.152236 5.78111
-0.0200032 -0.127766 4.81733
-0.329876 -0.133282 7.14632
-0.78092 -0.112928 7.14961
-0.450848 -0.0717012 8.32278
-0.289052 -0.0864211 5.40678
-0.19691 -0.0697649 5.62891
0.2598 -0.481337 5.3418
0.107821 -0.473534 5.33726
0.106384 -0.466955 5.34223
-0.0123963 -0.127867 4.52617
-0.0133696 -0.126081 4.53216
-0.024601 -0.0874001 4.56823
-0.0219972 -0.0585343 4.5661
-0.45285 -0.61442 17.4231
-0.604009 -0.224957 11.6315
-0.030408 -0.114688 5.63776
-0.179959 -0.0181945 11.0786
0.0738239 -0.445521 5.34237
0.0454206 -0.764893 6.69023
0.0864655 -0.420858 5.31685
-0.127943 -0.736619 6.66749
0.0953705 -0.723641 6.62819
0.171695 -0.538435 5.8752
0.0385101 -0.661179 6.42768
-0.932695 -0.645008 6.45198
0.145255 -0.683128 6.58677
-0.0454585 -0.667452 6.59241
0.153036 -0.502134 5.82936
0.12182 -0.639393 6.55201
-0.122106 -0.573645 6.40769
-1.04401 -0.590023 6.57569
0.0501836 -0.688415 7.28951
-1.01641 -0.547317 6.62422
0.233009 -0.397711 6.03744
-0.11153 -0.709684 8.28747
-1.03063 -0.668982 8.41506
-1.10345 -0.86914 10.0618
-0.732036 -0.465298 6.96242
0.0137963 -0.308715 5.65531
-0.833501 -0.496676 7.38715
0.0154643 -0.42758 6.75503
-2.5574 -1.01024 11.9973
-1.16766 -0.625428 8.66355
-1.29693 -0.807462 10.5133
0.202299 -0.40974 6.78416
-1.18239 -0.805299 10.7366
-0.000605375 -0.412608 6.92876
-0.273349 -0.517734 8.2735
-0.271395 -0.54294 8.53394
0.290743 -0.370666 6.83915
-1.14102 -0.551073 8.97706
-1.20215 -0.653146 10.2453
-0.0562383 -0.451075 8.18055
-0.78665 -0.623312 12.0948
0.0476499 -0.227081 5.92419
-1.2319 -0.602177 12.3229
-0.0153507 -0.338255 8.43198
-1.4938 -0.456246 11.109
-1.02594 -0.624769 14.4304
0.244813 -0.317041 8.16139
-1.70724 -0.440423 11.0988
-1.89703 -0.528788 13.3497
-1.39684 -0.451293 11.9622
-1.37989 -0.482001 13.075
-1.32416 -0.261375 7.99951
-1.32928 -0.391582 11.2623
0.201308 -0.214955 6.65823
-1.39512 -0.309174 9.48118
-0.585773 0.132898 7.70147
-1.37458 -0.279313 9.57777
-0.108121 -0.30552 10.2207
0.200784 -0.1596 5.58728
-1.52624 -0.217441 8.17962
-0.251032 -0.167041 6.15602
0.211614 -0.183067 6.65885
-0.637087 -0.179937 8.20495
-1.12046 -0.166961 9.45741
-0.954392 -0.134111 7.0729
-0.442205 -0.137237 7.174
-0.0797373 -0.134072 6.67776
-0.772163 -0.137998 8.31642
-0.640927 -0.109935 6.38361
-0.0170341 -0.1017 5.64893
-0.0582264 -0.0986641 5.58981
-0.0280312 -0.0982752 5.66518
-0.0897764 -0.0896332 5.83075
-0.224567 -0.0729408 5.58551
-0.30622 -0.0688359 5.22739
-0.0271378 -0.0733977 4.73568
0.0969596 -0.239356 4.89735
0.086514 -0.447408 5.33208
-0.0186114 -0.763823 6.62019
-0.0359974 -0.723407 6.56074
0.128185 -0.700855 6.60386
0.186001 -0.514308 5.82985
-0.0828539 -0.654496 6.54168
-0.988016 -0.612451 6.52572
-0.126893 -0.573811 6.38883
0.140017 -0.39785 6.02377
-0.0254233 -0.734702 8.33605
-0.115264 -0.703211 8.24166
0.0788482 -0.895239 9.56318
0.0575239 -0.690167 8.87623
0.193016 -0.565919 7.90777
-0.269811 -0.209992 6.18251
-1.29038 -0.642273 8.89829
0.390458 -0.286484 5.92267
-0.384831 -0.546367 8.82094
0.443125 -0.360637 6.87236
0.27088 -0.328478 6.64248
-1.13126 -0.410201 8.22781
-1.26367 -0.615522 11.3738
-1.38754 -0.824618 15.2959
-2.0098 -1.47888 25.4726
-0.168283 -0.511762 10.5146
-2.3601 -0.803548 15.8224
-1.69063 -0.495228 10.8814
-1.27911 -0.332302 8.67568
-0.09478 -0.386548 9.56398
-13.6586 -4.83324 117.811
-1.33352 -0.427298 12.596
-1.63828 -0.519057 16.3342
-0.250807 -0.069206 5.69778
-1.347 -0.211531 8.64101
-1.34543 -0.19807 8.87722
-1.63367 -0.223413 10.9248
-0.322687 -0.172412 8.00616
-1.33254 -0.159182 8.82644
-0.933021 -0.161675 8.79117
-0.0460193 -0.133957 6.87045
-0.329148 -0.121525 7.0551
0.00534772 -0.118186 5.58146
-0.197717 -0.110712 6.43093
0.122322 -0.387282 5.25912
-0.947626 -0.592467 6.52028
-0.0343352 -0.0807459 4.74393
-0.0922557 -0.0466645 5.67922
0.105394 -0.719117 6.63829
-0.00227443 -0.747262 7.04572
-0.0440164 -0.620281 6.50625
-0.129163 -0.578903 6.36328
-0.0299572 -0.615912 6.59218
0.0770542 -0.460043 5.99162
0.0398088 -0.432146 5.88573
-0.0270844 -0.544928 6.4944
-0.218599 -0.0623046 5.89649
0.220055 -0.393337 5.7239
0.025244 -0.392201 5.94668
-1.2059 -0.784533 8.99843
-0.128707 -0.699754 8.72883
-0.833628 -0.47176 7.11394
0.0161951 -0.426888 6.70996
-0.18017 -0.665824 8.90558
0.303823 -0.705637 9.29805
0.304913 -0.422134 6.86528
-1.27118 -0.771979 10.0665
14.802 -11.7629 105.035
-1.40207 -0.630687 8.92328
-0.00732131 -0.629017 8.99015
-1.2525 -0.878487 11.5087
-1.24339 -0.848006 11.3568
-1.17216 -0.74536 10.4893
-0.566553 -0.672269 9.84413
-0.265793 -0.526459 8.36929
0.0383036 -0.287825 5.96872
0.215233 -0.269036 5.76901
0.244346 -0.490171 8.04873
-1.15276 -0.543563 8.8819
-2.3107 -0.681697 11.0129
-2.3666 -0.707492 11.317
-0.656709 -0.859258 13.3748
-0.440173 -0.75932 12.1387
-0.411045 -1.02148 15.9091
-1.20544 -0.79825 15.8201
-3.30155 -1.25421 25.8839
-3.01616 -1.1788 24.4437
-1.71513 -0.449841 10.9448
-1.80652 -0.505132 12.3453
-0.418894 -0.42154 10.4838
0.084087 -0.327396 8.52046
-1.2522 -0.343302 10.5535
-1.30423 -0.351879 11.1659
0.0757104 -0.249034 8.51025
-1.31577 -0.42785 15.2008
-0.0881184 -0.228058 8.12176
-0.287462 -0.40875 15.0919
-0.928805 -0.214579 8.76784
0.216112 -0.152792 5.96258
-0.641161 -0.17962 8.22902
-0.549515 -0.21242 10.1197
-1.13997 -0.161861 8.31852
-0.979168 -0.161061 8.91146
-0.102767 -0.128137 6.97058
-0.24408 -0.120904 6.64179
1.09744 4.84949 25.4355
0.176186 -0.106748 6.07991
-0.0672103 -0.0948883 6.41692
-0.271106 -0.0768956 7.02579
-0.0861862 -0.086784 6.35884
-0.220538 -0.0561366 7.587
-4.54556 -2.31356 36.1502
-5.89821 6.17241 37.8028
0.175339 -0.543955 5.88248
-0.0078677 -0.73559 6.60721
0.0917439 -0.731963 6.60848
0.0654978 -0.608036 6.20946
-0.0503805 -0.106119 5.59175
-0.313262 -0.0836053 5.57806
-0.206968 -0.122897 6.43268
-0.155145 -0.678492 6.54811
-0.0356457 -0.614012 6.57486
-0.151118 -0.597111 6.52164
0.0320791 -0.425348 5.92981
0.0166315 -0.103683 5.59573
-0.0939153 -0.718594 8.57355
0.0694516 -0.722962 8.5996
0.113012 -0.673106 8.30479
-0.0925317 -0.711016 8.64237
-1.17459 -0.756631 9.07155
-1.16572 -0.926579 10.3171
-2.84424 -1.15326 12.64
-1.14914 -0.77757 9.61415
-0.19126 -0.658517 8.7127
-1.35478 -0.878463 10.7255
-0.575518 -0.603768 8.63207
-3.17513 -2.26887 24.0062
-0.42979 -0.535338 8.16286
0.0998627 -0.51748 8.1226
-0.417446 -0.508237 8.19918
0.33173 -0.356087 6.77779
0.347489 -0.356935 6.78593
-0.643216 -0.128553 9.07845
0.23378 -0.351919 6.95429
-2.41006 -0.76846 12.2226
-2.45581 -0.622241 12.1755
0.352954 -0.275358 6.74668
-1.36001 -0.631851 12.5279
-0.42548 -0.593902 12.1363
0.096185 -0.372499 8.50133
0.287413 -0.333083 8.23529
0.286401 -0.324746 8.22672
-1.4564 -0.438625 12.2588
0.0565756 -0.21737 6.77249
-1.36353 -0.791857 21.7248
-1.47222 -0.553956 17.7109
0.103321 -0.258192 8.60637
-1.41263 -0.305581 10.5354
-1.41753 -0.45785 17.149
-0.0580366 -0.2064 7.92303
0.220641 -0.158591 5.96818
-0.0439749 -0.114461 6.63565
-0.359123 -0.184547 8.38636
-0.358365 -0.143941 7.45538
-0.287128 -0.13584 7.15341
0.126636 -0.362639 5.68339
-0.0111533 -0.631591 6.57143
0.129487 -0.526669 9.94905
-0.151203 -0.589098 6.54824
-0.147054 -0.581328 6.56753
-0.0196564 -0.54228 6.51798
-0.0750483 -0.0912487 5.61426
0.096836 -0.777911 8.26376
0.288441 -0.678785 8.25633
-0.0971204 -0.712481 8.53544
-0.173396 -0.685447 8.63272
-1.23367 -0.773265 9.34039
-0.902741 -0.449407 6.98738
-0.173291 -0.676747 8.69162
-1.29187 -0.653863 8.98876
0.388493 -0.339005 6.45245
-0.151705 -0.930747 11.9428
-1.15802 -0.746442 10.7054
-2.51662 -0.867385 12.1993
0.322513 -0.482161 8.24793
-1.57942 -1.45834 18.9016
-0.475262 -0.715468 11.8733
-2.07205 -0.5825 10.6655
-0.492624 -1.23784 19.4695
-2.99623 -2.29433 35.2579
0.374691 -0.278384 6.74532
-1.82466 -0.532308 11.2707
-0.390104 -0.490196 10.6042
-1.4345 -0.51292 11.6738
-1.09581 -0.429635 10.6003
-0.235546 -0.481259 11.6516
0.327854 -0.236571 6.80051
-0.665391 -0.594542 14.2853
-1.21755 -0.338636 10.1351
-0.177172 -0.932618 26.9643
-1.38933 -0.347869 11.0618
-1.43473 -0.27763 9.59513
-0.310065 -0.32525 12.954
-0.181627 -0.269484 11.1936
-0.706058 -0.186099 8.40603
-1.13518 -0.162543 8.30148
-1.14027 -0.154701 8.26577
-0.0445773 -0.132116 6.80236
-0.0745196 -0.125758 5.6187
-0.0182533 -0.123019 6.59346
-0.0998279 -0.0982922 6.1
-0.0614709 -0.0999855 5.6079
0.0430077 -0.278494 5.91327
-0.0294224 -0.617545 6.58533
0.0563799 -0.44005 5.94175
0.0614432 -0.425232 5.90319
0.106324 -0.385294 5.7656
0.378617 -0.413068 6.47493
-1.8187 -1.28179 21.2596
-1.63156 -1.05394 24.2487
-0.0594387 -0.608452 6.60694
-0.375608 -0.410645 13.841
-0.623804 1.05336 23.7314
-0.135179 -0.57167 6.56302
0.090306 -0.763077 8.35012
0.157261 -0.697873 8.26382
0.1231 -0.650693 8.1866
0.249806 -0.637673 8.14921
-1.20285 -0.743928 8.99157
-0.149079 -0.67584 8.54633
-0.948696 -0.460796 7.06986
-1.1359 -0.716412 8.97975
-1.12439 -0.889275 10.2295
0.250535 -0.59762 8.26051
-0.757337 -0.419548 6.97312
-1.23893 -0.874626 10.4533
-0.0662698 -0.0886503 5.60107
-1.06794 -0.671135 8.961
-1.40201 -0.8419 10.5571
-0.715654 -0.886489 10.944
-0.154161 -0.627846 8.84402
-1.41352 -0.863373 10.8331
-0.361515 -0.530178 8.15009
-2.56792 -1.01791 12.337
-1.30617 -0.801796 10.5177
-0.252185 -0.567963 8.60567
-0.119922 -0.565433 8.5881
-0.118469 -0.566782 8.66945
-1.17582 -0.767126 10.5247
-2.6159 -0.983503 12.5833
-2.50392 -0.964415 12.5565
-1.47226 -0.748273 11.305
0.28476 -0.451757 8.22119
0.367598 -0.296184 6.7845
-0.798991 -0.847744 14.241
-3.93227 -2.99795 45.8531
-0.253504 -0.0447479 6.61086
-1.58174 -1.59349 27.0705
0.249176 -0.349315 8.15583
-0.293636 -0.552332 11.8885
-0.26692 -0.465504 10.8411
-1.31869 -0.598705 13.4843
-2.92147 -1.09336 25.8612
-1.86714 -0.381787 11.7448
-1.40047 -0.496166 15.7258
-0.121122 -0.315775 10.4335
-0.0570594 -0.159087 5.73623
-0.265626 -0.185033 6.66852
0.0177373 -0.183068 6.95995
-1.42116 -0.232661 9.01162
-0.0595081 -0.143208 5.61178
-0.367489 -0.158064 7.35482
-1.11252 -0.171172 9.04231
-0.266762 -0.152306 8.16953
-0.316706 -0.136069 7.06106
-0.383046 -0.126934 7.17511
-0.0805635 -0.12274 5.60124
-0.0765602 -0.113297 5.56193
0.00987666 -0.0955813 5.63039
-0.0750235 -0.0890743 5.81414
-0.0652522 -0.0968971 5.60764
-0.0656232 -0.0889522 5.59979
-0.0472612 -0.543773 6.59372
0.197052 -0.937235 8.52218
0.0954696 -0.831598 8.16454
0.0252736 0.21959 11.4617
-0.0794145 -0.753485 8.39212
0.0817125 -0.718299 8.31474
-0.138492 -0.692377 8.49865
-1.19362 -0.764671 8.98804
-1.16568 -0.725018 9.0006
0.0362425 -0.63803 8.4303
-1.30788 -1.0419 11.3006
-0.201029 -0.653425 8.58263
-0.00650121 -0.422826 6.98446
-0.101655 -0.634226 8.60968
-1.12015 -0.688662 9.04053
0.00769209 -0.615558 8.52964
-2.63941 -1.06842 12.1756
-0.0666115 -0.536044 8.23427
0.0517488 -0.395791 7.15358
-2.50038 -0.90515 11.6458
-1.16601 -0.80379 10.8034
-0.424339 -0.507226 8.32647
-1.37959 -0.8435 11.6302
0.393127 -0.31898 6.84897
-0.0650749 -0.633655 10.5644
-2.38132 -2.54429 33.3678
-1.64038 -1.04028 15.8287
0.109823 -0.327415 8.52235
0.186278 -0.235929 6.83059
-0.374688 -0.50404 12.0223
-1.39492 -0.406475 10.9797
-1.46721 -0.512601 13.4
-1.56277 -0.468352 12.7379
-1.34133 -0.568987 15.1841
0.192752 -0.21298 6.84515
-1.571 -0.353218 10.8375
-1.40814 -0.359893 11.4227
-1.40268 -0.287334 9.53953
-1.10362 -0.530816 19.1585
-1.53403 -0.251223 9.19562
-1.01695 -0.476938 18.1959
-0.774925 -0.235329 9.47377
-1.25602 -0.242386 10.1707
-0.0521577 -0.146493 6.72877
-1.12592 -0.157137 8.25475
-0.0521743 -0.139222 6.77521
-0.350664 -0.133041 7.20531
-0.316435 -0.101428 6.04977
-0.339869 -0.128401 7.17394
-0.13077 -0.114534 7.03603
-1.22373 -0.640631 9.57086
-0.0715288 -0.109936 5.60112
-1.10227 -0.120412 8.20466
-0.317725 -0.12139 7.408
0.146316 -0.932732 8.55308
0.339904 -0.86054 8.26812
0.445808 -0.718269 7.89519
0.13768 -0.763567 8.17099
-0.119483 -0.68324 8.17483
0.00310872 -0.37315 6.5468
-0.786922 -0.448034 7.02087
-1.23633 -0.737163 9.00126
0.0713475 -0.57873 8.2472
-0.131523 -0.649627 8.86233
-0.125061 -0.636748 8.82363
0.536527 -0.524474 8.14239
0.030441 -0.560036 8.45893
-1.11532 -0.811206 10.5198
-0.40691 -0.497135 8.08528
-0.379956 -0.115822 7.09279
-1.43093 -0.842592 11.3906
-1.5359 -1.11304 14.1692
-1.68745 -1.21032 15.4732
-1.98033 -0.774464 11.8725
0.0255389 -0.428972 8.30541
-2.07259 -1.42105 19.5181
-1.9883 -0.772051 12.499
-0.105383 -0.505545 9.44345
-1.82178 -0.609399 11.0031
-1.07229 -0.985718 17.1353
0.0478263 -0.346689 8.35967
-1.18616 -0.344719 8.32874
0.190671 -0.247636 6.87618
-1.45334 -0.494288 10.9202
-0.0339625 -0.334501 8.37247
0.345335 -0.28983 7.95413
0.347261 -0.285747 7.87819
0.18126 -0.228672 6.86526
-0.378816 -0.621981 15.6819
0.39083 -0.266633 8.10281
-0.496351 -0.603876 16.269
-1.38232 -0.469579 13.3124
-0.0544792 -0.348281 10.4245
0.0780346 -0.275107 8.58697
-1.16234 -0.331323 10.0949
-0.163831 -0.717647 20.5783
-1.50385 -0.298751 10.3082
-1.12285 -0.530778 19.2956
-0.508456 -0.324932 12.4168
-1.10478 -0.328911 13.083
-1.13009 -0.17987 8.3917
-0.116707 -0.177051 8.68121
-1.48407 -0.164063 8.85653
-0.388411 -0.145913 7.51138
-0.799685 -0.144247 8.46375
-0.124063 -0.133659 8.1243
-0.0560094 -0.152258 5.7216
-0.0675304 -0.143907 5.66935
0.109814 -0.848201 8.1827
0.23312 -0.829872 8.20906
0.492646 -0.745199 7.84521
0.213705 -0.790419 8.19492
0.212255 -0.809473 8.31083
0.407592 -0.738641 7.9863
0.383793 -0.776406 8.21668
0.184882 -0.395218 6.46701
0.181475 -0.423391 6.61876
0.458481 -0.687379 7.95566
0.454442 -0.664856 7.98335
-0.170217 -0.702578 8.68962
-0.139735 -0.680135 8.55145
-0.0211862 -0.419648 6.96465
-0.756296 -0.426061 7.01147
-1.09366 -0.717864 8.85543
-0.0598564 -0.63586 8.48413
0.286927 -0.830158 9.77459
-1.29652 -0.715326 9.03049
-1.17266 -0.706293 8.97302
-1.23313 -0.667738 8.7616
0.0392472 -0.40968 7.09412
-1.38513 -0.679789 9.1062
-1.29854 -0.863184 10.5223
-1.02934 -0.759509 9.76332
-1.24748 -0.892007 10.9071
-0.501531 -0.521018 8.1463
0.28731 -0.719209 9.70327
0.012395 -0.370265 7.02265
-2.13751 -0.852795 10.843
-1.14863 -0.803135 10.476
-1.5261 -0.887337 11.2349
-1.18037 -0.772247 10.4838
0.169892 -0.446321 7.78952
-2.01887 -1.11537 13.4796
-2.60328 -0.980833 12.5646
-1.8154 -0.711567 10.2989
-1.42418 -1.03212 13.2024
-1.37867 -0.551536 9.08293
-0.0739966 -0.446336 8.18619
-2.24103 -0.856721 12.2321
0.303534 -0.287267 6.74392
0.00828547 -0.462489 8.68887
0.260724 -0.285854 6.82893
-1.43074 -0.665811 11.2129
-1.86796 -0.613942 11.3042
0.187117 -0.243274 6.60391
-0.396389 -0.689274 12.9898
0.0238674 -0.367958 8.44674
-0.278166 -0.316272 7.92766
-1.10477 -0.797341 15.6909
0.0603811 -0.339288 8.51704
0.20032 -0.229718 6.87401
0.110302 -0.246642 7.87762
-0.364677 -0.460597 13.6146
-1.73809 -0.388329 11.8976
-2.58619 -0.979577 28.292
-0.305091 -0.458467 14.0381
0.175936 0.0165498 7.6845
-1.0175 -0.252222 12.0599
-0.0365428 -0.154476 6.99261
0.00321576 -0.152251 6.71841
0.0203521 -0.151029 6.56466
-0.948221 -0.165633 8.91308
-0.314263 -0.101592 6.02252
-0.276664 -0.145208 7.25512
-0.380114 -0.141342 7.60619
-0.0766745 -0.137422 6.72656
-0.502026 -0.132498 7.559
-0.123289 -0.126433 6.95947
-0.481329 -0.122517 7.15982
-0.451953 -0.120811 6.97601
-0.128738 -0.102987 7.0696
-0.213391 -0.102352 6.35452
-1.32353 -1.6487 10.8132
-2.73784 -2.28682 33.3508
0.197062 -0.445431 6.51686
0.137559 -0.797699 8.22967
0.466538 -0.763787 8.08275
0.272641 -0.907065 8.75047
0.174319 -0.758304 8.21213
0.426205 -0.700536 8.04827
-0.766958 -0.464739 6.97228
0.439115 -0.652575 7.97246
0.147425 -0.689698 8.22288
0.0784267 -0.665665 8.32165
0.0625311 -0.650226 8.33866
-1.14894 -0.84948 9.8926
-1.16868 -0.704142 8.99178
-0.0926533 -0.587476 8.24519
-0.0131915 -0.391446 6.94986
-0.0786165 -0.60684 8.59415
0.284857 -0.350641 6.78615
-0.129387 -0.628881 8.85112
0.286478 -0.480479 7.77839
-1.21428 -0.649781 9.02951
-0.303481 -0.521113 8.14319
-1.30971 -0.837573 10.5774
-2.56133 -1.0232 12.065
0.0721727 -0.547906 8.4514
-1.41388 -0.629213 9.09886
-0.409958 -0.500421 8.11274
-0.511978 -0.495181 8.11318
-0.211268 -0.500066 8.16149
-1.3551 -0.744966 10.2505
-1.20764 -0.87028 11.2937
-0.321745 -0.526202 8.69817
0.0109732 -0.332854 6.99186
-1.17554 -0.694011 10.2484
-1.13241 -0.52488 8.84933
-1.21835 -0.866267 12.0527
0.439595 -0.444957 8.39215
-0.45661 -0.748607 11.707
-0.0824575 -0.47098 8.85488
-1.61446 -0.637739 12.7063
-9.93078 -7.44361 115.481
-40.3784 -44.864 703.042
-1.34236 -0.383513 9.09741
-1.30997 -0.570958 12.132
0.0498182 -0.273129 8.15664
0.0607925 -0.277719 8.54671
0.24053 -0.255113 8.02164
-1.08498 -0.633431 17.5901
0.250204 -0.189846 6.64712
-1.50297 -0.590728 18.4916
-0.12884 -0.439489 14.1508
-1.28382 -0.252826 9.09267
-1.21779 -0.383789 13.8987
-0.668643 -0.203146 8.24934
-1.43105 -0.21174 8.88889
-0.101433 -0.167763 6.87451
-0.724155 -0.179189 8.21295
-0.322908 -0.18044 8.49743
-1.34412 -0.180228 8.65216
-2.42088 -0.317635 23.2754
-1.16293 -0.165573 8.59855
-0.754034 -0.162053 8.28505
-0.247876 -0.146927 7.59888
-0.58097 -0.143436 8.01666
-1.03933 -0.140548 7.89803
-0.391427 -0.138556 7.53018
0.163349 -0.138837 6.5807
-0.361149 -0.125111 7.11233
-0.0280427 -0.130225 6.512
-0.30968 -0.117111 6.75793
-0.591422 -0.107278 6.98761
-0.216316 -0.0916847 7.10644
-0.349338 -0.103675 6.63233
0.244812 -0.283762 6.79134
0.0907912 -0.801223 8.08652
0.368484 -0.822619 8.2241
0.021392 -0.427364 6.63814
0.530563 -0.721277 7.95334
0.368491 -0.703319 7.89485
0.146396 -0.774619 8.2405
-0.453775 -0.362733 13.9356
-0.0376697 -0.750828 8.37988
0.0617854 -0.7179 8.33643
0.572985 -0.628163 7.93127
-1.29847 -0.873558 9.3343
-0.0567463 -0.710859 8.46027
-1.19499 -0.769306 9.00719
-0.160305 -0.67768 8.63845
0.60509 -0.631453 8.48043
-1.23052 -0.696236 8.96088
0.434908 -0.612625 8.43738
-1.23208 -0.67176 8.9422
-0.0122057 -0.620528 8.61136
-1.23686 -0.856031 10.2633
0.077734 -0.629283 8.71833
0.0103905 -0.37328 6.95096
-1.36223 -0.851917 10.4453
-1.29161 -0.657478 9.10025
0.0967456 -0.592768 8.64975
-1.41054 -0.867642 10.7947
-0.246778 -0.555829 8.51348
0.242114 -0.492214 8.0353
-1.32191 -0.619163 9.03595
-1.34778 -0.602634 8.96337
-0.267011 -0.510357 8.30116
0.2451 -0.339396 6.93896
-1.15078 -0.766335 10.5052
-0.125046 -0.467803 8.191
-1.49929 -0.78507 11.2448
-1.49436 -0.843385 11.9047
0.212293 -0.415339 7.91984
0.193884 -0.33454 7.15983
-2.23776 -0.870258 12.4078
-1.76845 -0.774236 11.6038
-1.5814 -0.862232 12.4859
-1.29884 -0.731836 11.3124
-0.0478917 -0.393038 8.32101
-1.33523 -0.450639 9.05489
-1.8598 -0.660321 11.9175
-0.0665762 -0.41287 8.80428
-2.02079 -0.553845 11.6937
0.160531 -0.598809 12.4933
-1.18631 -0.595437 13.1204
-1.07438 -0.716929 15.2328
-1.11447 -0.303271 8.25909
-0.0377769 -0.29584 8.99896
0.11573 -0.26149 8.18061
-1.17326 -0.321698 9.99418
-1.4515 -0.809464 24.0381
0.0656415 -0.259169 8.5931
-1.36123 -0.28896 9.55553
-1.50201 -0.481511 15.3238
-0.270623 -0.0974429 6.62422
-1.26488 -0.582588 19.2224
0.0751922 -0.225519 8.31581
-0.288157 -0.100486 6.68175
0.400732 -0.207825 8.10911
-0.91626 -0.22137 8.82099
-0.661559 -0.173911 8.27859
0.0163344 -0.15181 6.60326
-0.971527 -0.151396 8.23611
-0.0457436 -0.144402 6.74651
0.0440951 -0.135565 6.77886
-0.0752994 -0.133487 6.73962
-0.664799 -0.108459 6.82153
-0.326947 -0.263971 10.9227
0.305855 -1.03738 8.76902
0.263311 -0.936312 8.39426
0.0993639 -0.798909 8.06188
0.244232 -0.81665 8.1522
0.0716169 -0.811558 8.22388
0.198384 -0.803578 8.18894
0.275626 -0.768318 8.15449
0.197037 -0.768398 8.1798
0.178525 -0.760869 8.19549
0.102577 -0.7971 8.41102
-0.128758 -0.645244 7.92925
0.100034 -0.695486 8.28701
0.0813674 -0.7626 8.66633
-0.290953 -0.0880396 6.81006
-0.070848 -0.712016 8.43678
-1.09135 -0.730423 8.87596
-1.11467 -0.68941 8.96692
-0.0655021 -0.578212 8.42625
-0.41607 -0.537522 8.19082
0.0804876 -0.596135 8.59028
0.104112 -0.545082 8.27352
-0.488329 -0.51848 8.1346
-0.286002 -0.527309 8.19413
0.0857603 -0.584733 8.64536
-0.370556 -0.501325 8.12499
-0.307462 -0.5077 8.21329
-0.159919 -0.112733 7.03859
-0.306126 -0.569597 8.73526
0.177391 -0.326339 6.84322
-1.24845 -0.546509 8.83862
-1.11969 -0.534369 8.79038
-2.05928 -0.967975 12.6387
-1.29753 -0.794231 11.2131
-1.25612 -0.686815 10.4395
-0.361044 -0.817616 12.1156
-0.561196 -0.720951 11.3997
-1.12975 -0.382391 8.19847
-0.706277 -0.791593 12.9132
-0.152984 -0.50423 9.78256
-1.25234 -0.595166 12.0422
0.0626841 -0.351196 8.52263
-0.342509 -0.93957 17.7866
-0.155182 -0.387296 10.2411
0.0336969 -0.298258 8.4553
-1.49216 -0.386488 11.2031
0.0165304 -0.304628 9.18509
-1.26564 -0.436114 15.1962
-0.112155 -0.178832 7.18403
-0.434892 -0.202781 9.50579
-0.173766 -0.175821 8.34188
-0.10875 -0.173193 8.05341
-1.11592 -0.156569 8.23685
-0.184156 -0.152016 7.95859
-0.0288473 -0.136123 6.65391
-0.287543 -0.123677 7.40747
0.314878 -0.9125 8.32506
0.330563 -0.905743 8.30087
0.312031 -0.346134 7.13661
-0.187532 -0.135598 7.10865
0.210012 -0.805438 8.16486
0.0841309 -0.882036 8.48684
0.335479 -0.748253 8.2278
0.374867 -0.696674 8.18284
-0.0434456 -0.749342 8.54726
0.0720852 -0.676935 8.325
-0.319489 -0.11981 7.28747
-1.13624 -0.692314 8.97691
0.0197171 -0.628506 8.56649
-1.25173 -0.882451 10.3931
-1.14099 -0.669149 9.1409
0.0881986 -0.592287 8.68632
-1.1109 -0.649819 9.1543
-1.3424 -0.616985 9.02225
-1.16286 -0.621225 9.05053
-1.20503 -0.608752 9.06127
-0.171605 -0.13599 7.07918
-0.336641 -0.569409 8.95536
0.059118 -0.567435 9.04422
-1.42595 -0.786089 11.0545
-1.6722 -0.908459 12.2182
-1.58518 -0.754648 11.0704
-2.05909 -0.9026 12.5379
-1.64793 -0.728011 11.5925
-1.75604 -0.808092 12.4225
-1.43949 -0.854067 13.3794
-1.41937 -0.555388 11.5327
-0.772678 -1.29782 24.6529
-1.2299 -0.431279 10.4208
0.120899 -0.283915 8.11505
-0.0388671 -0.373004 10.1856
0.0740418 -0.284585 8.34004
-0.0455811 -0.366183 10.2382
-1.43646 -0.505245 13.6546
-0.0583076 -0.333839 10.1302
-0.142809 -0.470674 13.9902
-1.18841 -0.316225 10.1833
-1.50143 -0.570053 17.9809
0.0529761 -0.238214 8.44295
-1.11733 -0.206659 9.05233
-0.108708 -0.16837 8.19579
-0.667133 -0.162981 8.28017
-0.514277 -0.16339 8.36382
-0.100644 -0.148451 7.88753
-0.415281 -0.145274 7.54521
-0.404891 -0.139566 7.3168
-0.0990939 -0.155825 6.96187
0.209115 -0.808438 8.1778
0.105793 -0.864218 8.40379
-1.3419 -0.57405 9.06331
-0.194906 -0.132962 6.76286
-0.341849 -0.141639 7.33349
0.450584 -0.733583 8.06743
0.0720063 -0.735867 8.32783
0.0822688 -0.716333 8.332
-0.0577764 -0.753468 8.5808
0.0746234 -0.683796 8.34869
-0.0343177 -0.701462 8.46325
0.0403942 -0.718529 8.65926
-0.164128 -0.691652 8.58414
-0.0120736 -0.673305 8.48481
-0.206491 -0.644586 8.60649
0.107303 -0.572381 8.29899
-0.192504 -0.590007 8.44569
-0.10698 -0.626866 8.66961
-1.19783 -0.895065 10.4575
0.0746942 -0.564678 8.34699
-1.18169 -0.886972 10.4655
-0.445976 -0.530491 8.17542
-0.206635 -0.594222 8.57532
0.0846008 -0.600941 8.61067
-0.149933 -0.54291 8.3455
-0.24169 -0.510274 8.19588
-1.1346 -0.610642 8.94659
-1.27751 -0.912055 11.0323
-0.0699924 -0.635763 9.09152
-0.521017 -0.479832 8.12396
-0.262418 -0.571745 8.8237
-0.543931 -0.466409 8.12967
-0.130659 -0.474635 8.21693
-0.0620204 -0.512314 8.50352
-1.25037 -0.568423 9.06822
-0.0191127 -0.474787 8.33284
-1.70197 -0.884612 11.9753
-1.61503 -1.01352 13.0615
-1.50809 -0.907011 12.5023
-1.59106 -0.889639 12.4703
-0.283954 -0.453636 8.47528
-1.342 -0.675104 11.5768
-0.513582 -0.79667 15.2362
-1.52028 -0.533408 12.3732
-1.48448 -0.660324 14.578
-0.0517817 -0.405174 11.4685
-1.37606 -0.458942 13.1371
0.214212 -0.237594 7.99331
-0.796447 -0.221658 8.34822
-0.517828 -0.372009 14.3231
-0.493499 -0.210041 9.78856
-0.571753 -0.1993 9.56007
-0.358754 -0.205993 10.1306
-0.284467 -0.188821 9.15728
-0.115087 -0.171743 8.34251
0.388021 -0.553218 7.83254
-1.20774 -0.680279 8.88622
-0.970988 -0.20334 8.16024
-1.02085 -0.159206 8.42618
-0.0426229 -0.152214 6.8921
-0.310936 -0.129729 7.16138
-0.190407 -0.137096 7.14196
-0.0457971 -0.743513 8.49685
0.0692484 -0.761844 8.66728
-0.096314 -0.716003 8.53302
-0.444648 -0.135647 7.20933
-1.1698 -0.769178 9.0102
-1.16178 -0.767684 9.00272
0.162231 -0.594043 8.17236
-1.14629 -0.740809 9.08445
-0.149226 -0.625834 8.54384
-0.323542 -0.575242 8.40029
-1.08953 -0.859745 10.2151
-0.404768 -0.520075 8.1554
0.065463 -0.607526 8.67935
0.469897 -0.826081 10.1487
-1.16955 -0.612753 8.93718
-1.2571 -0.825463 10.3833
-0.298658 -0.506442 8.49837
-0.302625 -0.605133 9.41998
0.0787928 -0.463259 8.39151
-2.08404 -0.926833 12.3255
-1.85565 -0.915867 12.2329
-1.31726 -0.826389 11.4879
-0.0423802 -0.479716 8.6087
-1.5008 -0.964094 12.7415
0.152728 -0.369522 8.03579
-1.17951 -0.691835 11.3577
-0.0477057 -0.476932 9.30454
-3.56918 -2.63327 33.9446
-0.514844 -0.587852 11.5509
-0.31461 -0.544155 10.9767
-1.56378 -0.615602 12.2515
0.00919709 -0.371453 8.86155
0.16631 -0.312585 8.04526
-1.55691 -0.457335 12.109
-0.11469 -0.357644 10.0247
-1.4939 -0.441792 12.3174
-1.86867 -0.610375 17.8034
-0.0814224 -0.768863 8.43441
-0.0589409 -0.750664 8.56108
-0.701507 -0.290205 13.7624
-0.0503772 -0.745845 8.44976
-0.602626 -0.140289 7.79848
0.215077 -0.650521 8.18686
-0.145492 -0.678599 8.43332
-0.131131 -0.677121 8.46674
0.056027 -0.682499 8.51096
-0.148323 -0.694853 8.70298
-0.203497 -0.654304 8.53259
-0.0355216 -0.632523 8.42771
0.0643673 -0.644631 8.508
0.233973 -0.581802 8.20307
-1.16615 -0.736496 9.12645
0.0123681 -0.626221 8.55701
-1.11286 -0.690642 9.13292
-0.500739 -0.519316 8.1695
-1.04105 -0.658019 8.98086
-0.276732 -0.506908 8.16637
-0.273204 -0.509017 8.17865
-1.05667 -0.638163 8.96254
-0.113977 -0.484542 8.20016
-0.200753 -0.510953 8.45404
-0.521509 -0.458488 8.13247
0.341011 -0.472707 8.22975
-0.314179 -0.506364 8.51575
0.31477 -0.456955 8.20546
-1.4075 -0.76805 10.619
0.112708 -0.492714 8.66222
-2.12293 -0.980187 12.6673
-1.76104 -0.868814 11.87
-1.85475 -0.80441 12.0126
-1.76136 -1.23101 15.9336
-2.22941 -0.794996 12.143
-1.44827 -0.753946 11.8672
-0.502889 -0.678954 11.1461
-3.20969 -2.30672 27.8175
-1.94595 -1.69444 21.6253
-0.44722 -0.739017 11.9579
-1.49008 -0.660458 11.2543
-1.76956 -0.64218 11.1656
0.263327 -0.358035 8.18518
-1.17634 -0.494392 10.1093
-1.38186 -0.615903 11.8571
-0.496439 -0.567783 11.3913
-2.10184 -0.598966 11.9236
-0.280919 -0.137252 7.22603
-0.375955 -0.511006 11.3284
0.0787626 -0.301183 8.5222
-1.63006 -0.382624 10.5529
-1.79941 -0.43784 11.699
-0.00113094 -0.274946 8.36268
-1.42347 -0.442727 12.0605
0.23803 -0.253137 8.0734
-1.47582 -0.397345 12.8154
-1.25433 -0.390024 12.6104
-0.169863 -0.292122 10.2519
-0.35291 -0.241747 10.1582
-0.177183 -0.244227 10.8587
-1.41483 -0.656142 11.1112
-0.292491 -0.12768 7.15746
-0.0177116 -0.698355 8.43901
0.0600563 -0.681015 8.37053
0.377851 -0.355947 8.37789
-0.22742 -0.148607 7.34509
-0.32616 -0.254718 9.41859
0.0694246 -0.723855 8.63934
0.0504648 -0.668207 8.48172
-0.183729 -0.656475 8.54494
0.203798 -0.561239 8.16327
-0.0949555 -0.676821 8.7144
-0.107842 -0.631577 8.52716
0.268112 -0.557485 8.17704
-0.516587 -0.555396 8.20078
-0.484375 -0.51997 8.11426
-0.479059 -0.521304 8.1723
-0.156164 -0.592574 8.52431
-0.249103 -0.51739 8.18321
0.0192888 -0.560043 8.48225
0.326821 -0.530287 8.33624
-0.0363674 -0.422953 8.18764
-1.5216 -0.764967 11.0779
-1.70595 -0.869895 11.9056
-1.83498 -0.869336 11.9928
-1.5207 -0.765366 11.3129
-0.36848 -0.724922 11.1031
-2.01888 -0.784165 11.9393
-1.79707 -0.826396 12.4207
-2.35866 -0.835851 13.2834
-0.673568 -0.710158 11.9352
0.113714 -0.37043 8.45543
-2.1039 -1.75205 23.4128
-0.130679 -0.199786 8.34252
-0.0328504 -0.516219 10.2362
-1.19281 -0.495938 10.132
-7.01481 -2.33941 34.0856
-1.74846 -1.36755 22.3957
-1.9646 -1.3794 23.0107
0.0653844 -1.14926 20.1541
-1.14283 -0.789327 15.934
-1.65359 -0.421905 11.3549
-1.51182 -0.530615 14.4646
-1.76888 -0.669443 17.6024
-0.0905268 -0.29889 11.085
0.221569 -0.378394 5.35346
0.0886209 -0.522383 4.90993
0.281941 -0.313082 4.52382
0.247017 -0.389921 5.72775
-4.35732 -1.5166 16.5866
-0.102921 -0.0645461 7.09579
-0.146585 -0.343356 12.8786
-1.16 -0.737425 6.46771
-0.30266 -3.63496 27.1644
-1.18014 -0.218965 6.51215
-0.0156921 -0.429116 4.96778
-1.12295 -0.597658 6.44712
-0.137914 -0.0830981 5.43004
-0.00198209 -0.0659754 4.42052
0.166871 -0.687461 8.61404
-0.18417 0.011252 4.32988
-1.37543 -0.455222 9.10872
-0.060232 -0.0503331 5.08096
-1.03663 -0.605504 6.33909
0.0107294 -0.363902 7.63246
-0.156572 -0.122457 7.49367
0.257182 -0.263919 5.26565
-1.28421 -0.686019 8.82813
-0.984725 -0.602853 6.47734
-7.868 -9.4141 37.8878
-0.108017 -0.804388 6.55122
-0.101253 -0.77238 6.59092
-0.95091 -0.701278 6.51419
0.0218816 -0.265347 6.612
-0.973725 -0.548556 6.55535
-0.958576 -0.563498 6.52017
-0.152592 -0.769114 6.60895
-0.126926 -0.747455 6.56822
-0.063049 -0.145045 7.26407
0.193703 -0.311169 6.79354
-0.0428596 -0.59276 6.61232
-0.515086 -0.627849 12.4114
-0.152328 -0.679559 8.6468
-1.16245 -0.79549 8.9805
-1.1646 -0.937325 10.3561
-0.124841 -0.456865 8.17308
0.122341 -0.374953 7.99398
0.160796 -0.392893 8.13885
0.106747 -0.349107 7.99452
-0.286017 -0.534904 8.31851
-0.186254 -0.485433 8.17806
-0.253919 -0.525736 8.41775
-1.13259 -0.899953 10.3269
0.101271 -0.489454 8.43886
-0.323681 -0.495209 8.49437
-1.3744 -0.796121 10.4596
-0.0451823 -0.401751 8.18843
-0.315858 -0.158256 7.6505
-1.56792 -0.79143 11.2288
-1.48462 -0.96299 12.5834
-0.0927931 -0.496911 9.14688
-1.54851 -0.7723 11.2192
-1.36545 -0.771961 11.2924
-0.0339671 -0.506859 9.2986
-0.0360247 -0.35764 8.16697
-0.280024 -0.683168 10.8384
0.0174697 -0.46344 9.07056
-1.76925 -0.85994 12.2969
-1.38078 -0.774436 11.8608
-0.116605 -0.520588 9.82276
-1.51153 -0.797686 12.4506
-2.04294 -1.29546 17.0669
-0.608727 -0.725719 11.8246
-0.397458 -0.813538 12.6543
-1.35665 -0.715473 12.965
-2.1173 -0.787722 14.1129
-1.08918 -0.49072 10.8105
-0.339676 -0.49084 11.6521
-0.140373 -0.393638 10.1187
-1.04984 -0.690074 15.0329
-0.251807 -0.572024 13.6144
-1.53953 -0.447459 12.026
-1.57638 -0.474589 12.5814
-3.1752 -2.69958 65.6841
-1.18382 -0.491191 14.2039
-1.28962 -0.401798 13.266
-0.143111 -0.190055 8.27591
-1.24779 -0.310874 12.6475
-1.0559 -0.25235 10.1217
-0.363786 -0.250714 10.6954
-0.101778 -0.207904 8.12102
-0.312432 -0.203707 8.75746
-0.0572635 -0.196555 8.04818
-0.361289 -0.209229 10.3135
-0.150416 -0.470855 8.17041
-0.120843 -0.451383 8.41553
-0.259738 -0.506791 8.17998
0.088578 -0.263304 8.10902
-3.20313 -2.44581 33.0315
0.0680686 -0.532569 8.35647
-1.1864 -0.920859 10.3737
-0.329029 -0.152549 7.7544
-0.273475 -0.428259 8.32997
-1.20581 -0.805844 10.4577
-0.150526 -0.575247 9.28015
-1.3313 -0.76696 10.2913
-1.29009 -0.737496 10.2384
-1.29027 -0.760852 10.4709
-0.256339 -0.86702 11.4151
-0.0843238 -0.498753 9.05943
-1.20279 -0.730409 10.6167
-1.32062 -0.824854 11.5847
0.0304498 -0.482189 9.27354
-1.4536 -0.730272 11.0983
-1.29084 -0.713663 11.2007
-1.55637 -0.806709 12.02
-1.23523 -0.774358 11.8068
-0.516114 -0.755328 11.7885
-0.113816 -0.486838 9.56224
-0.65042 -0.873771 12.8818
-0.65993 -0.74731 11.86
-1.59045 -0.787156 12.1121
-0.550669 -0.704892 11.588
-0.16399 -0.596875 10.691
-1.04744 -0.593969 10.752
-0.584312 -0.858531 13.8571
-0.347415 -0.641626 11.9727
-1.25982 -0.570356 11.4414
-1.79136 -0.577699 11.6095
0.078233 -0.281374 8.35752
-2.40403 -2.2343 35.5704
-1.45355 -0.445905 12.2039
-1.52888 -0.521708 14.2517
-1.69282 -0.668415 18.8767
-0.646761 -0.347786 13.367
-0.174486 -0.272558 10.592
-0.371506 -0.329633 16.0613
-0.254184 -0.178799 8.73527
-15.585 -8.15775 200.554
-0.130438 -0.36537 10.2405
-0.316727 -0.153663 7.71946
0.0529248 -0.614539 8.98822
-0.162839 -0.553445 8.76745
-1.13854 -0.901215 10.3352
-0.0986556 -0.474007 8.52398
-1.14149 -0.725414 9.74496
-1.37232 -0.806618 10.4076
-0.506091 -0.618339 9.4287
-1.17412 -0.802836 10.5113
-0.05481 -0.359992 8.18071
-0.210244 -0.760902 10.8456
-1.85339 -1.12944 13.3989
-2.11341 -1.11752 13.3844
-1.46015 -0.945838 12.3908
-0.0240682 -0.604045 10.0627
-1.21415 -0.758064 11.1864
0.0253546 -0.411309 8.7607
-1.44588 -0.721639 11.0761
-1.71819 -0.680312 11.2487
-0.00273788 -0.532996 10.1195
-0.665006 -0.739348 12.6608
-0.55141 -0.592127 11.6303
-0.652721 -0.776567 14.8025
-0.256892 -0.560182 11.9778
0.00119822 -0.296618 8.6248
-1.54771 -0.620771 13.6502
-0.346311 -0.447969 11.115
-0.119112 -0.432945 11.4773
1.85056 1.54042 20.7416
0.0424299 -0.289138 8.95056
-1.4864 -0.38542 10.8851
-1.53103 -0.372013 10.7437
-0.366767 -0.180823 8.19469
-0.510743 -0.497416 14.8688
-1.4887 -0.412878 12.6799
-1.49298 -0.686754 20.1881
-1.69019 -0.970677 27.9123
-0.419082 -0.358994 12.4131
-1.96326 -0.476408 16.3195
-1.23062 -0.412832 14.9254
-0.568864 -0.343178 12.5621
-0.11688 -0.226207 9.04941
-0.545316 -0.238617 11.9193
-0.531454 -0.183086 9.19605
-0.248475 -0.535974 8.49657
-0.265407 -0.50416 8.43192
-1.46294 -0.145486 13.0064
-0.411567 -0.18124 8.99814
-0.0469407 -0.435647 8.20221
-0.149561 -0.7008 9.25662
-1.19714 -0.78511 10.2305
-1.35456 -0.791483 10.3305
-1.23608 -0.761086 10.3572
-0.0971412 -0.536137 9.18496
-1.24903 -0.850455 11.1751
-0.0344697 -0.426182 8.69688
-0.123139 -0.180453 8.2647
-1.55514 -0.78482 11.1255
-1.24595 -0.794011 11.3208
0.00987182 -0.552752 9.64766
-1.09524 -0.669871 10.5662
-2.24422 -1.44012 15.9572
-1.26308 -0.746139 11.2694
-1.11979 -0.640241 10.5919
-1.01831 -0.558945 10.1967
-0.12388 -0.516444 9.82233
-0.369174 -0.637853 11.5286
-1.35977 -0.615937 11.672
-1.39789 -0.704828 12.6013
0.0379803 -0.332235 8.59685
-1.47301 -0.580011 11.8872
-1.08435 -0.504132 11.118
-0.526124 -0.5504 11.6267
-1.78794 -0.593509 12.4586
-0.138791 -0.411701 10.045
-0.287681 -0.500438 11.3816
-0.143456 -0.40229 10.1501
-0.983282 -0.444322 11.0087
0.281729 -0.976329 20.5761
-0.0727539 -0.495108 12.6259
-0.0492531 -0.359086 10.1778
-0.112178 -0.322687 10.2988
-0.129175 -0.391998 13.9975
-0.0665654 -0.290894 10.723
-0.484534 -0.463336 19.548
-1.32192 -0.250162 10.2685
-0.0445712 -0.254167 9.74263
-0.112908 -0.244696 9.47537
-0.103664 -0.228925 9.13582
-2.13538 -1.78189 22.9001
0.143339 -0.303655 3.20049
0.0077158 -0.657031 4.38278
0.166416 -0.300217 3.21608
0.190835 -0.289345 3.20794
-1.02194 -0.520912 4.94822
0.203546 -0.447729 5.11832
0.16365 -0.191813 3.20326
0.18121 -0.246812 3.90548
0.172686 -0.0862005 3.2041
-0.0991783 -0.0241067 2.9935
-0.0153239 -0.579968 4.3538
-1.02006 -0.666139 4.97599
-0.99734 -0.44092 4.9572
0.242037 -0.388575 5.26156
0.24921 -0.318611 5.05549
-1.19025 -0.279064 5.41029
-1.14521 -0.229752 5.36879
-1.08686 -0.147249 6.96169
0.109243 -0.540848 4.2788
-0.20922 -0.0267754 3.52378
0.0516797 -0.0862007 3.21108
0.162111 -0.360216 3.71466
0.140312 -0.283666 3.71617
-0.0145619 -0.0940661 4.65338
0.24288 -0.2796 5.10157
0.171288 -0.49171 4.30106
0.334516 -0.242118 4.23561
0.0287587 -0.0763734 3.47966
0.115697 -0.250576 4.39451
-0.0463155 -0.374707 8.79107
-1.7778 -0.829525 11.1116
-0.0805073 -0.0734435 5.78534
-1.33166 -0.670491 8.93123
-1.0636 -0.123804 6.71725
0.312079 -0.488833 5.28311
-1.0073 -0.749003 6.56764
-1.17117 -0.88034 24.164
-0.944109 -0.694919 6.50681
0.0707657 -0.738611 6.65766
-0.321161 -0.67426 10.9392
-1.43563 -0.726936 12.3205
-0.0437076 -0.586095 6.62914
-1.53561 -0.619184 11.563
-1.64486 -2.10143 11.6672
-0.147232 -0.673438 8.49862
-0.0736908 -0.767275 8.40407
-1.15894 -0.80322 8.99893
-0.447841 -0.529637 8.16791
0.0480536 -0.453357 8.75113
-1.04474 -0.824914 10.0417
0.00379823 -0.583228 9.45627
-0.282287 -0.91499 11.9044
-0.392005 -0.736359 11.336
-0.496064 -0.752494 11.5339
-1.15136 -0.52431 11.1829
-2.13056 -1.29814 21.2636
-1.22171 -0.980223 17.8658
-0.377679 -0.443973 10.7005
-1.46505 -0.929789 19.1443
-0.32626 -0.287238 8.74851
0.0195055 -0.297721 8.96966
-1.40978 -0.393752 12.2413
-1.36005 -0.299523 10.6293
-1.6062 -0.378649 13.3664
-0.906816 -0.310753 17.226
-0.113668 -0.234345 9.16257
-0.111344 -0.224607 9.26601
-0.262516 -0.207949 9.69372
-0.261274 -0.196237 10.7446
-0.331581 -0.165309 9.42481
-0.302464 -0.17308 8.95697
-0.214513 -0.166969 8.64878
-0.057992 -0.387346 8.7596
-1.2903 -0.850246 10.3517
-0.00669567 -0.294653 8.63487
-1.2323 -0.880064 10.3769
-0.369306 -0.165629 9.45121
-0.364825 -0.195838 8.64322
-0.0757631 -0.4598 8.77416
-1.36996 -0.80695 11.0697
-0.0737492 -0.414301 8.71061
-1.79961 -1.02174 12.6676
-1.50641 -0.728566 11.0356
-1.20627 -0.598701 10.3075
-0.321941 -0.165708 9.02222
-1.40351 -0.64126 10.8366
-0.231051 -0.583057 10.2117
-0.625237 -0.764389 11.6272
-1.31944 -0.683538 11.2783
-1.75411 -0.710416 11.8103
-1.65969 -1.13893 15.1745
-0.632565 -0.70567 11.548
-0.417697 -0.712269 11.6207
-0.58159 -0.681454 11.4691
-0.162143 -0.52536 10.109
-1.2581 -0.630889 11.5169
-1.1127 -0.616866 11.3594
-1.38705 -0.882856 14.0174
-0.595599 -0.610352 11.3876
-1.52796 -0.608821 11.9213
-0.0649669 -0.427133 10.1618
-1.13952 -1.13542 19.9961
-1.5478 -0.514528 12.0597
-0.285044 -0.193111 9.08671
-1.23056 -0.466848 11.8879
0.000132826 -0.413731 10.7658
-0.0638606 -0.289995 8.71485
-1.44969 -0.493375 13.7547
-0.390198 -0.177714 8.94076
-1.31878 -0.343402 11.0731
-1.36607 -0.705769 19.4708
-1.23488 -0.337785 11.0542
-0.0278842 -0.343758 10.4667
0.016776 -0.300533 9.39197
0.0197885 -0.262664 9.44046
0.032927 -0.25873 9.21517
-0.211513 -0.169626 8.63909
-0.986816 -0.964824 10.8467
-1.39129 -0.831593 11.0348
-0.0902497 -0.515278 9.54959
-1.42347 -0.918668 12.4517
-1.53941 -0.747748 11.487
-1.41683 -0.721702 11.3864
-0.568458 -0.752078 11.7282
-1.43212 -0.941245 13.5474
-0.709284 -0.68471 11.6652
-0.654458 -0.875155 13.7758
-1.43142 -0.584032 11.4466
-1.92829 -1.28407 17.9833
-0.0350943 -0.554381 10.8349
-0.663319 -0.57156 11.4492
-0.068804 -0.739244 13.5332
-0.0545182 -0.353651 9.77889
-0.338644 -0.22539 9.1526
0.0154779 -0.279342 9.08503
-1.10974 -0.750364 10.3171
-0.243082 -0.876509 11.1069
-0.0802101 -0.545466 9.47368
-0.281949 -0.616874 9.92806
-0.095801 -0.632522 10.0002
-0.283529 -0.724493 10.6383
-1.42078 -0.74783 11.0478
-1.5698 -0.808205 11.8485
-0.222997 -0.585931 10.2905
-1.31173 -0.680097 11.202
-0.215547 -0.556497 10.1551
-0.604767 -0.749658 11.6288
-1.42837 -0.999755 13.6011
-0.291644 -0.816384 12.0833
-0.257548 -0.104212 9.3987
-1.27142 -0.623299 11.1135
-0.672881 -0.692046 11.5467
-0.577822 -0.684856 11.4715
-0.308307 -0.66307 11.2988
-0.577845 -0.671328 11.4773
-1.24247 -0.639347 11.4921
-0.501733 -0.65592 11.4504
-0.353744 -0.747487 12.2193
-1.39364 -0.752004 12.6608
-0.392387 -0.629863 11.383
-1.24928 -0.580214 11.2325
-0.614243 -0.632772 11.5235
-0.133483 -0.669071 12.1525
-2.21155 -1.37924 20.005
-0.0906081 -0.981188 18.3673
-1.38707 -0.463606 12.7892
-0.885551 -0.549256 18.1465
-1.1619 -0.402633 14.8337
-0.338194 -0.295908 11.6786
-0.322058 -0.262651 10.8397
-0.153635 -0.240163 10.0702
-0.450268 -0.209381 10.2142
-0.123141 -0.221002 9.7773
-0.390627 -0.175326 8.9011
-0.123031 1.05415 31.7824
-0.113666 -0.453177 9.47353
0.0379475 -0.485872 9.27372
-0.604599 -0.236521 16.7698
-0.144306 -0.739977 10.2956
-1.67198 -1.75456 15.2586
-0.266393 -0.713808 10.3329
-0.0394788 -0.534668 9.55925
-0.0252321 -0.647904 10.2481
-0.227202 -0.632282 10.2115
-0.166776 -0.652822 10.3138
0.0137753 -0.538916 9.7997
