# .PCD v.6 - Point Cloud Data file format
FIELDS x y z
SIZE 4 4 4
TYPE F F F
COUNT 1 1 1
WIDTH 1760
HEIGHT 1
#VIEWPOINT 0 0 0 1 0 0 0
POINTS 1760
DATA ascii
-1.43715 -0.92165 14.5259
0.0609337 -0.684992 13.2311
-0.606207 -0.40597 13.5429
-0.111721 -0.402869 12.7142
-0.0464087 -0.697779 13.3268
0.0138908 -0.665235 13.256
-1.13301 -0.431181 14.8984
0.402194 -1.61289 19.5408
0.0335177 -0.651157 13.2692
0.143883 -0.629623 13.2053
-0.612437 -0.744629 14.3572
-0.198621 -0.898106 15.5675
0.166045 -0.569045 13.12
0.165011 -0.576521 13.2552
0.149204 -0.644456 13.924
0.177895 -0.495179 12.6847
-1.03698 -0.680312 14.7492
-1.22285 -0.764274 16.0266
-0.285914 -0.497418 12.8364
0.121391 -0.617847 14.2799
-1.16132 -0.804081 16.6492
-0.161114 -0.611811 14.3666
0.157334 -0.534753 13.3894
-1.29779 -0.587375 14.1279
0.160343 -0.546745 13.6035
0.164937 -0.489085 12.848
-0.12967 -0.359408 12.2685
-1.00564 -0.731434 16.6564
-0.11492 -0.380434 12.7823
-0.0908194 -0.384624 12.6133
-1.2982 -0.505227 14.0664
-1.69609 -0.608078 16.3449
-0.213692 -0.487363 13.6837
-0.61749 -0.397157 13.8787
-1.38878 -0.571151 15.7512
-0.114675 -0.412152 12.7839
-0.0507768 -0.390354 12.3477
-1.37619 -0.5033 14.4866
-1.49072 -0.52824 15.1441
-0.905706 -0.543319 15.5524
-0.885238 -0.555114 16.155
-0.71963 -0.486554 16.0341
-0.067821 -0.495855 14.7085
-1.02354 -0.462762 14.0455
-1.03447 -0.529914 16.4265
-1.27019 -0.475705 15.4986
0.0405208 -0.656968 12.532
-0.0625419 -0.677446 12.6115
0.108703 -0.643478 12.5464
-1.26873 -0.986038 13.7913
0.108 -0.644505 12.6012
0.109029 -0.637842 12.577
-0.947909 -0.37295 13.1919
-0.380588 -0.549532 16.6362
-1.03124 -0.485232 15.8326
-0.0960978 -0.39283 12.765
-0.115838 -0.395002 12.8856
0.108402 -0.673934 12.699
-1.47867 -1.12617 14.3538
-0.122965 -0.397891 12.7674
-0.0711615 -0.367661 12.3794
0.0861113 -0.657945 12.6666
0.101333 -0.660082 12.7007
0.042018 -0.630998 12.6245
-1.49775 -1.11947 14.6066
0.119226 -1.20105 14.9536
-1.47888 -1.0512 14.3848
0.206793 -0.708193 12.9742
0.200657 -0.695052 12.9327
-1.23038 -0.890336 13.7671
0.0436019 -0.608489 12.6223
0.102511 -1.13869 14.9547
0.0191885 -0.676411 12.956
0.124809 -1.10964 15.0011
0.0522977 -0.712963 13.1998
0.0247228 -0.657343 12.9802
0.139196 -0.679792 13.0894
-1.37637 -0.919941 14.3065
0.0230987 -0.644314 12.9455
-1.46126 -0.936516 14.4884
-0.0304166 -0.710728 13.318
-1.46598 -0.913448 14.4031
-0.0807764 -0.458213 12.7154
-0.0397126 -0.714996 13.4708
-0.982553 -0.401966 13.5664
-0.0239296 -0.673071 13.2798
-1.00004 -0.439027 13.8861
-1.54494 -0.960153 15.0192
-2.08672 -1.15938 16.3902
-0.0148757 -0.655165 13.2858
-1.35304 -0.775831 14.0688
0.0421497 -0.660737 13.4206
-1.18468 -0.776753 14.7562
-1.15415 -0.760193 14.6803
-0.155174 -0.375429 12.3432
-1.00117 -0.764 14.7105
0.160118 -0.56624 13.112
-1.2105 -0.802245 15.2326
0.139628 -0.62172 13.6536
-1.38723 -0.730517 14.6714
-1.08413 -0.696257 14.4229
-1.23596 -0.634798 13.9137
-1.23982 -0.648923 14.0448
-1.25113 -0.638762 14.0016
-0.281073 -0.683174 14.4808
-1.34889 -0.700637 14.8011
-1.69564 -1.60599 24.0348
-0.487534 -0.818257 15.9953
0.174642 -0.50808 12.8285
-1.62754 -1.5725 23.9942
-0.266734 -0.677419 14.6295
0.179922 -0.503245 12.8061
-0.09892 -0.801311 16.0323
0.0838129 -0.418487 14.7281
-1.20665 -0.786391 16.1052
-0.0521719 -0.628088 14.3085
-0.18664 -0.409988 13.4439
-0.636008 -0.74037 15.6897
-0.532072 -0.919956 17.7765
-0.390909 -1.45391 23.9822
-0.196455 -0.974725 18.4112
-0.195073 -0.79359 16.3057
0.0119584 -0.577089 13.788
-0.982865 -0.951237 18.3276
0.1794 -0.509652 13.0404
-0.2219 -0.662798 15.1728
-0.0165436 -0.706384 15.7421
0.154791 -0.49751 13.0073
0.177006 -0.579335 14.2373
-1.62598 -1.81529 33.7317
-0.834543 -1.14635 23.3351
-0.809326 -0.900436 19.8174
-1.33174 -0.677766 16.4085
-1.29729 -0.671834 16.3087
-0.293298 -1.06367 22.8828
-1.05147 -0.925843 20.9453
0.0768921 -0.744289 18.0286
0.0304446 -0.595166 15.3047
-0.0726578 -0.449419 12.6428
-0.731972 -1.76369 37.8013
-1.27917 -0.515096 14.0538
-1.2486 -0.622 16.1947
-0.0234304 -0.566369 15.0746
-0.106337 -0.448675 12.7178
-1.43027 -0.585151 15.856
-0.838559 -0.875952 22.2987
0.0485806 -0.575991 15.6461
-1.30377 -0.624403 17.0073
-1.27541 -0.637304 17.6428
-0.875414 -0.662853 18.2749
-1.46931 -0.531342 15.2236
-0.122135 -0.415417 12.7537
0.0132441 -0.519289 14.8994
0.0464694 -0.516307 14.8206
-1.55122 -0.514797 14.9951
-0.074035 -0.500359 14.5825
-1.05473 -0.564216 16.7247
-1.33993 -0.53859 16.6709
-0.920779 -0.513609 16.1643
0.000134135 -0.463723 14.2335
-1.29064 -0.506861 16.3333
-1.23971 -0.477166 16.5537
-1.08064 -0.466345 14.9359
-1.22599 -0.491794 16.1445
0.0402577 -0.636318 12.6255
0.304598 -0.596984 13.0356
0.17709 -0.499434 12.8078
0.0422459 -0.459526 12.6118
-0.0378128 -0.643798 12.7226
0.158993 -0.716065 13.0178
-1.48888 -1.13762 14.6368
-1.36619 -1.06516 14.432
0.104743 -1.21751 15.1452
0.12316 -1.06616 14.6123
0.130862 -0.702552 13.092
0.10503 -1.06546 14.6376
0.113807 -0.740419 13.3574
0.0572436 -0.702948 13.2039
0.018659 -0.676555 13.1118
-1.39293 -0.963208 14.4798
-0.0423553 -0.703992 13.2883
-1.58252 -1.02824 14.9627
-0.0113235 -0.682613 13.2338
-1.46972 -0.925701 14.5151
-1.52559 -1.00146 14.9023
-1.48975 -0.9997 14.9311
0.151594 -0.644903 13.106
-1.4713 -0.910018 14.5342
-0.0958686 -0.688357 13.4138
0.0298719 -0.650408 13.2413
0.126597 -0.852245 14.4933
-1.13339 -0.749016 13.9472
-0.96867 -0.409666 13.6859
-0.559349 -0.153918 27.3849
-0.965026 -0.414172 13.7015
-1.9309 -1.14761 17.3379
0.171752 -0.562545 13.037
0.163239 -0.608418 13.4394
-1.0129 -0.768793 14.7466
-1.2311 -0.776829 14.8686
-1.05151 -0.762369 14.7512
0.0579834 -0.630986 13.6848
0.167938 -0.543947 13.0024
-1.2345 -0.681838 14.2392
0.0614672 -0.586972 13.489
-1.25636 -0.683251 14.5923
-1.69019 -1.61325 24.0149
-0.0132846 -0.665058 14.5396
0.157732 -0.518922 13.0328
0.0821651 -0.564801 13.5482
-0.0344181 -0.644721 14.4599
0.0175209 -0.585552 13.871
0.180614 -0.51062 13.0362
-1.20859 -0.753979 15.9687
0.166212 -0.498365 12.9597
-1.0762 -0.755899 16.1121
-1.12847 -0.753493 16.2101
-0.335681 -1.04211 19.8112
-1.50431 -0.631582 14.97
-1.32059 -0.722279 16.2138
-1.11926 -0.699218 15.8977
0.136861 -0.563191 14.0333
-1.00522 -0.424361 13.8225
-1.32835 -0.563492 14.1111
-1.39462 -1.22943 23.5542
-1.31526 -0.69558 16.287
-0.0811826 -0.569708 14.4693
-0.0747861 -0.433771 14.2181
-0.0551397 -0.64674 15.8382
0.1496 -0.687424 16.5067
-1.34333 -0.662411 16.457
0.0769183 -0.640086 16.0628
-0.107496 -0.448299 12.7177
-0.894442 -0.569723 15.6134
0.231603 -0.6563 17.5846
-1.51374 -0.53988 15.3106
-1.10945 -0.605731 16.9914
0.0361263 -0.49861 14.2691
-1.38457 -0.521638 15.0423
-1.35082 -0.538452 15.754
-0.783885 -0.528222 15.7332
-1.60514 -0.528457 16.0478
-1.20448 -0.497003 14.9902
-0.462837 -0.532211 16.187
0.0285554 -0.4688 14.4799
-1.44202 -0.496349 15.9689
-0.146062 -0.425001 12.8052
-1.00527 -0.446617 13.9856
-0.124359 -0.466747 15.0089
-0.0819109 -0.450665 14.2055
-0.960423 -0.475986 15.9482
-0.965605 -0.437058 14.0342
-0.402155 -0.442063 14.379
-0.892525 -0.460666 16.295
0.186796 -0.530028 13.003
0.109484 -1.20067 14.6774
0.146208 -1.19629 14.6852
0.192575 -1.19028 14.6642
0.234411 -1.12594 14.4829
-0.188272 -0.457435 14.5282
-1.48143 -1.12562 14.5964
-1.49832 -1.1147 14.6034
0.0199843 -0.676594 13.0209
-1.46445 -1.02514 14.6044
-0.265909 -0.512663 16.7476
0.116857 -0.710919 13.3684
-0.686904 -0.555552 17.998
-0.00666324 -0.746505 13.6531
-1.02526 -0.758866 13.8529
0.00453032 -0.691868 13.4908
-1.34002 -0.487517 14.4268
-0.818061 -0.415065 14.5331
-0.111346 -0.427394 12.7152
0.0255349 -0.610344 13.3428
-1.07738 -0.793463 14.8422
0.142563 -0.622308 13.5919
0.0616938 -0.630488 13.6865
0.139433 -0.628923 13.7084
-1.16219 -0.763631 14.8262
-2.57337 -2.0614 25.3577
0.248697 -0.617357 13.7202
-0.948606 -0.526221 16.3427
-1.20677 -0.613152 17.5532
0.128668 -0.556895 13.321
-0.118527 -0.493489 14.1743
-0.997493 -0.780751 15.6134
0.147134 -0.516605 13.0229
-0.292691 -0.73107 15.21
0.21113 -0.590069 13.8874
0.158421 -0.549078 13.4515
-1.14128 -0.79239 16.1234
0.144468 -0.624903 14.3173
0.145937 -0.579421 13.8218
-1.69526 -1.49268 24.063
0.167081 -0.540754 13.4822
0.0327242 -0.524937 13.3782
-1.16066 -0.76272 16.3822
-0.0523222 -0.635849 14.8111
0.0391755 -0.590428 14.3151
-0.263281 -0.884984 18.3165
-1.36749 -0.724571 16.294
-0.413135 -0.546301 13.8556
-0.69986 -0.776655 17.2004
-1.5737 -0.624769 15.1247
-0.138986 -0.655095 15.7401
-1.1653 -0.704647 16.648
-1.1593 -0.585485 14.8656
-1.0254 -0.673729 16.3278
-0.106873 -0.453248 12.7073
-1.49151 -0.593792 15.2579
-1.44534 -0.634055 15.9823
0.0195306 -0.559191 14.9404
0.0248636 -0.521865 14.2069
-1.4849 -0.625011 16.3957
-0.112239 -0.39038 12.9076
-1.32454 -0.68055 18.1649
0.0648497 -0.561998 15.5038
-0.575585 -0.669499 18.2913
-1.20493 -0.572796 16.1669
-1.45851 -1.09698 14.5907
0.146585 -0.658929 12.9758
0.168752 -0.534533 13.0848
-0.0345777 -0.39171 12.7364
0.0991582 -0.860112 13.7058
-0.159106 -0.412052 13.6414
0.0880366 -0.756 13.3702
0.021665 -0.674637 13.1292
-0.0588412 -0.717655 13.3679
-0.050694 -0.694584 13.2819
-0.0413548 -0.434804 13.6626
-0.116443 -0.456958 14.7128
-1.24884 -0.482147 15.956
-1.54618 -1.0173 14.9021
-1.57342 -1.01638 14.93
-0.0687214 -0.630695 13.1677
0.14977 -0.650866 13.4404
0.0358343 -0.621928 13.3828
0.0106805 -0.584382 13.2358
-1.06964 -0.789901 14.8433
-1.03596 -0.783906 14.7995
0.0174179 -0.583012 13.378
-0.704588 -0.508375 15.606
-0.761632 -0.888847 16.0825
-0.839581 -0.743624 14.9106
-0.273447 -0.711845 15.0175
-0.714536 -0.529115 16.0233
0.135752 -0.551935 13.5207
-1.11471 -0.746755 15.6833
-1.15051 -0.809077 16.3614
-1.80312 -1.51698 24.3792
-0.841029 -0.526265 15.9115
-0.182415 -0.647409 14.7707
-1.18965 -0.737367 15.8787
-0.170075 -0.653495 14.9204
-0.361051 -0.68959 15.4371
-1.01478 -0.627839 14.8245
-1.13686 -0.720057 16.1394
-1.55331 -2.03843 34.4402
0.0949503 -0.56492 14.1843
-1.34218 -0.699767 16.4197
-1.2417 -0.681103 16.1384
-1.21497 -0.691082 16.4541
0.0893685 -0.644289 16.0799
-1.4429 -0.611008 15.9034
-0.112516 -0.394975 12.7487
-1.44238 -0.554887 15.0852
-0.118213 -0.44132 12.7087
-0.930698 -0.537751 15.9728
-1.22377 -0.648156 17.7161
-1.41152 -0.713006 19.2745
0.0318072 -0.489151 14.2072
-1.0142 -0.540224 16.0425
0.0608496 -0.609611 13.0163
0.0647366 -0.63678 14.0898
-0.0970776 -0.396575 12.7625
0.116143 -1.19415 14.6851
0.0162683 -0.746098 13.3664
0.0247981 -0.678357 13.1251
0.0398986 -0.685443 13.2413
0.100377 -0.696747 13.3073
-0.0381648 -0.692468 13.299
-0.687007 -1.43287 28.0792
-1.07126 -0.49806 15.9472
-2.72602 -2.11607 19.6946
-1.52019 -1.01754 14.894
0.107464 -0.841579 14.1245
-0.081465 -0.399798 13.0412
0.0414121 -0.849853 14.2513
-1.42825 -0.939129 14.7954
0.149545 -0.65608 13.4656
-0.377333 -0.425457 13.5905
-1.12726 -0.787503 14.5529
-1.00545 -0.7891 14.7662
-0.105735 -0.385907 13.031
-0.938963 -0.453276 16.0779
-0.172837 -0.691668 14.8215
-0.299029 -0.734897 15.2997
-1.47871 -1.20724 20.2359
-0.173308 -0.436378 14.0822
-0.135937 -0.620482 14.3417
0.160454 -0.546283 13.5774
-0.395939 -0.446416 14.3966
-1.7716 -1.49319 24.0287
-1.38013 -0.89668 17.9008
0.177293 -0.723287 15.9108
-0.906797 -0.743359 16.2009
0.129307 -0.58701 14.3297
-0.0251738 -0.637766 15.0338
-1.36196 -0.744578 16.5788
-1.18628 -0.730039 16.3934
-1.01078 -0.737476 16.5072
-2.6927 -0.524248 19.2399
-0.108562 -0.743376 16.8035
-0.112967 -0.626906 15.5006
-1.09931 -0.452159 14.5213
0.251952 -0.877361 20.0479
-1.26314 -0.681116 16.9737
-1.46544 -0.614207 15.8826
-1.49459 -0.555829 15.166
-0.927972 -0.782707 20.3249
-0.803037 -1.70699 41.0714
0.113941 -0.546672 15.3297
-1.51389 -0.653202 17.9704
-1.36576 -0.583598 16.5015
-1.07235 -0.5929 16.7943
-0.0632589 -0.490061 14.1932
-1.0359 -0.567688 16.3955
0.037248 -0.502793 14.7116
-0.298319 -0.554088 16.4157
-0.635888 -0.579077 17.9802
-0.306243 -0.607445 22.7223
-0.547566 -0.46507 15.1895
0.0197832 -0.771767 13.3761
0.0313055 -0.674513 13.1411
0.154268 -0.674037 13.3084
-0.119714 -0.406183 12.7475
0.140756 -0.52608 13.2921
-0.12329 -0.42931 12.7511
0.00991412 -0.452096 14.3905
0.0139677 -0.451947 14.382
-1.92488 -2.65331 19.0342
-1.35645 -0.449021 16.0803
-1.04192 -0.423333 14.5409
0.119643 -1.11037 14.9432
-0.177989 -0.43488 13.9355
-0.00673527 -0.658319 13.2551
0.0322109 -0.624176 13.1392
0.0415859 -0.657203 13.2862
0.0988924 -0.813561 14.0228
0.154119 -0.670547 13.4126
-0.017649 -0.441649 13.9369
0.0368368 -0.657877 13.4002
0.0383677 -0.611646 13.3973
0.0148218 -0.580844 13.2507
0.018165 -0.59845 13.3937
-0.178086 -0.448346 14.0706
-0.996994 -0.904926 15.7087
-1.2607 -0.79463 15.1129
0.0329231 -0.557505 13.3896
-1.14122 -0.71717 14.659
-1.30814 -0.705636 14.7442
-1.47618 -1.41018 20.8112
-0.171888 -0.665554 14.5337
-1.43442 -0.48224 15.8796
-1.56904 -0.890151 16.7835
-0.2132 -0.798007 15.9577
-1.26987 -0.852439 16.5307
-1.64686 -1.55467 23.4281
-0.139316 -0.86627 16.8249
0.000222647 -0.654756 14.6982
0.135309 -0.709881 15.4896
-1.02716 -0.755669 16.0236
-1.47404 -1.19839 20.9452
-1.13597 -1.03524 19.1408
0.137095 -0.719302 15.7716
-1.03874 -0.618964 14.6175
-1.03063 -0.618343 14.6106
-0.583241 -0.841543 17.271
0.167009 -0.719066 15.8678
0.193219 -0.572554 14.1397
0.0364933 -0.509367 13.3848
-0.191296 -0.870226 17.9503
0.0313139 -0.495068 13.3596
-0.959002 -1.32435 25.5795
-1.16056 -0.679079 16.1916
-1.11476 -0.674076 16.1187
-1.13703 -0.710364 16.6714
-1.12733 -0.683537 16.4113
-1.028 -0.73213 17.19
0.0732125 -0.612512 15.3804
0.160374 -0.509376 13.8677
-1.33533 -0.770583 18.7512
-0.213022 -1.36091 24.4555
-1.46093 -0.558665 15.149
-5.4318 -6.63222 146.155
-1.3699 -0.534338 14.7575
-1.01226 -0.816133 21.234
0.193952 -0.500128 14.1622
-1.27099 -0.586281 16.3991
-1.3673 -0.643317 18.2101
-1.02501 -0.662096 18.7727
-1.52086 -0.546701 16.0292
-0.743353 -0.533363 15.7395
-1.36986 -0.533459 15.9062
-1.28165 -0.551304 16.5299
-1.04247 -0.53804 16.4576
-0.661405 -0.506582 15.3665
0.0292065 -0.477157 14.4123
-0.658293 -0.553825 17.5863
0.0451047 -0.451355 13.8648
0.0277597 -0.651523 13.2813
-0.0497973 -0.716185 13.3714
-0.0419971 -0.716807 13.3735
0.155153 -0.700353 13.3583
0.15402 -0.610093 13.4226
-0.126839 -0.414095 12.9236
-0.119322 -0.441565 12.8263
-0.27647 -1.00451 20.6147
-0.729135 -0.393586 13.709
0.11498 -1.18568 14.9579
0.000742376 -0.412772 13.8007
-0.392558 -0.414013 13.6053
-0.545291 -0.425435 14.0917
0.181066 -1.19411 15.1149
0.0998627 -1.068 14.9494
0.0704405 -0.98052 14.6074
0.327097 -1.00995 14.7258
0.0967853 -1.01116 14.889
0.00506926 -0.64175 13.3624
0.154656 -0.853561 14.4782
-0.401754 -0.433271 14.3109
-1.1749 -0.77407 14.7286
0.0321692 -0.563897 13.3956
-1.05046 -0.764209 14.7788
-1.02127 -0.756174 14.7626
-1.60507 -1.7554 22.188
0.202431 -1.14165 17.7268
0.0175791 -0.626407 13.9507
-1.03727 -0.732328 14.7934
-0.173878 -0.922598 16.4563
-0.435376 -0.434118 14.5027
-1.43052 -1.3983 20.7387
-0.286082 -0.747429 15.1967
0.164611 -0.661959 14.4813
0.0927929 -0.646228 14.3835
-0.0887769 -0.658786 14.6749
-1.09671 -0.764032 15.7106
-0.223419 -0.788864 15.9963
-0.135511 -0.631368 14.5054
0.127191 -0.662919 14.8947
-0.331983 -0.751727 15.8698
-0.287423 -0.738593 15.7336
-0.486709 -0.765613 16.101
-0.0352299 -0.643302 14.8017
-0.249296 -0.766947 16.227
-0.175179 -0.872532 17.4046
-0.118341 -0.669223 15.1483
-1.14293 -0.747894 16.164
-0.319833 -1.11171 20.9669
0.152844 -0.558395 14.1112
-1.1572 -0.725899 16.2251
0.0949568 -0.647507 15.3936
0.203195 -0.549621 14.1053
-0.970205 -0.756845 17.062
-0.255938 -0.991331 20.4299
-1.3473 -0.701658 16.3878
-1.32544 -1.25017 24.4174
-0.14582 -0.638674 15.6723
-1.14817 -1.37251 27.8486
0.0625469 -0.586345 15.1976
-1.34648 -0.658365 16.4605
-1.16847 -0.639838 16.1484
-1.32916 -0.774321 18.5219
0.00184983 -0.574388 15.0974
0.222144 -0.52563 14.2524
-1.36378 -0.684083 17.3331
-0.0564472 -0.564187 15.1419
-0.111472 -0.947457 23.0774
0.0420112 -0.503537 14.3279
0.0372174 -0.44008 13.9202
-1.3672 -0.577111 16.1103
-0.158897 -0.598516 17.1068
-0.210427 -0.50952 14.6972
-0.100906 -0.493013 14.2681
-1.13218 -0.68022 19.6324
-0.758022 -0.537536 15.8081
-0.108494 -0.492344 14.5193
0.00430241 -0.394633 13.4237
-1.49508 -0.521674 15.4088
-0.364714 -0.524397 15.713
-1.30643 -0.540242 16.3839
-0.600547 -0.570185 17.6206
-1.25584 -0.528483 16.3037
-0.133461 -0.461218 14.0226
-0.0173207 -0.457652 13.8942
-1.36069 -0.512413 16.3965
0.0112741 -0.464609 14.4198
-0.68954 -0.487436 15.7434
-0.0167011 -0.4584 14.3301
-1.11125 -0.479256 15.57
-0.144837 -0.453943 14.6308
-0.112749 -0.446944 14.1068
-0.200591 -0.447707 14.5096
0.15868 -0.549024 13.5282
0.166989 -0.521099 13.5416
-0.00625576 -0.64902 13.2542
0.0152047 -0.648662 13.2651
0.042823 -0.625184 13.258
0.0685142 -0.625447 13.3405
-1.65572 -0.619467 16.4777
0.116332 -1.19829 14.9422
-0.984944 -1.16199 26.1711
0.103052 -1.16807 14.9387
-0.0845157 -0.434456 14.5382
-0.103206 -0.447667 14.3961
-1.42304 -0.468047 15.6898
0.274497 -0.999874 14.4838
0.190511 -0.974834 14.4128
0.234498 -0.985105 14.4487
0.116544 -1.11782 14.9466
-1.28573 -0.459484 14.9173
0.160601 -0.891089 14.3519
-1.19507 -0.469427 15.294
-1.04674 -0.814346 14.8486
0.0370054 -0.455053 14.3388
-0.914088 -0.744523 14.6435
-0.994108 -0.716674 14.517
0.0189582 -0.620663 13.9209
0.0773267 -0.630844 13.9968
-0.974372 -0.74935 14.8654
-1.43211 -1.53547 20.8123
0.0364857 -0.542599 13.4003
-0.748974 -0.635684 14.1169
0.035844 -0.540264 13.3986
-1.05904 -0.698638 14.6376
-0.216811 -0.921514 16.5987
-0.184763 -0.678021 14.7146
-0.0800971 -0.755154 15.3981
0.0873138 -1.23872 19.9801
-0.396319 -0.727467 15.3192
-0.302243 -0.723356 15.2846
0.155354 -0.554263 13.8013
-1.12343 -0.781165 16.1169
-0.12901 -0.612803 14.4246
0.163735 -0.590602 14.2094
-0.193819 -0.781631 16.2604
-1.25561 -0.765488 16.1272
-0.576543 -0.782181 16.3443
-0.289004 -0.716076 15.6398
0.162266 -0.577571 14.156
0.17664 -0.554497 13.9056
-0.352625 -0.846541 17.1783
0.163076 -0.591046 14.3506
-1.3611 -1.15938 21.0799
-0.439299 -0.495336 16.865
-1.13634 -0.721985 16.1312
-0.249121 -0.596099 14.6092
-0.140986 -0.657164 15.3806
-0.570258 -0.488692 16.3711
-0.171474 -0.727741 16.3787
0.161278 -0.548645 14.1376
0.165486 -0.529525 13.8831
-1.22131 -0.70211 16.2095
-0.850066 -0.485828 15.5833
0.16968 -0.522352 13.8746
-1.48882 -1.31877 25.5425
0.141155 -0.632852 15.5498
-1.42738 -0.700118 16.5688
-1.40984 -0.68871 16.5432
-1.09141 -0.414036 15.5432
0.0396269 -0.581774 15.0593
-1.46581 -0.589791 15.1701
-0.986732 -0.640126 16.0769
-1.21409 -0.557772 14.8321
-0.0983513 -0.526595 14.4421
0.0414227 -0.519088 14.309
-1.37727 -0.610575 16.1293
-1.82662 -0.899912 22.0372
-0.230623 -0.462556 14.7434
-1.30826 -0.686993 17.9793
-1.19816 -0.903334 22.677
-1.27156 -0.598195 16.2542
-1.21908 -0.59389 16.1621
0.135364 -0.551441 15.3542
-1.23159 -0.584347 16.3636
-4.97522 -2.06586 53.884
0.0227043 -0.49984 14.3643
0.164858 -0.480727 13.893
-1.41612 -0.528404 15.0585
-1.35199 -0.566353 16.106
-0.767555 -0.731432 20.7067
0.0468353 -0.493445 14.3142
0.155203 -0.488552 14.196
0.0452888 -0.460075 13.401
-0.315213 -0.633997 18.9527
-1.70502 -0.543772 16.4729
-0.630875 -0.505958 15.2837
-0.0132306 -0.474198 14.228
-0.263528 -0.518093 16.1297
-0.616931 -0.530511 16.9962
-0.730895 -0.493462 15.6309
-0.65974 -0.490713 15.5112
0.0280743 -0.466836 14.4905
0.165571 -0.478679 13.587
0.183842 -0.467272 13.6526
0.175947 -0.461635 13.6249
0.06525 -1.05592 14.7054
0.0508386 -0.8411 14.2364
0.0920496 -0.755779 14.0955
-0.00191991 -0.431661 14.1695
0.111789 -0.718506 14.0338
0.121851 -0.636693 13.712
-1.05624 -0.806007 14.8398
-0.812701 -0.780718 14.7884
-1.06679 -0.767601 14.7617
-0.167093 -0.440283 14.2226
0.149925 -0.663907 14.1836
0.0225654 -0.620811 13.9343
0.0218037 -0.614446 13.8906
-0.982808 -0.840123 15.4472
0.231722 -0.775808 15.0443
-0.200995 -0.722799 14.9263
0.0227626 -0.591391 13.9222
0.168745 -0.698366 14.8327
-0.283276 -0.781779 15.5546
0.156229 -0.57042 13.8282
-1.09992 -0.72314 15.1247
0.0209673 -0.726343 15.2077
0.176516 -0.582012 13.9552
0.142647 -0.388821 14.0994
-1.30415 -0.83233 16.2176
-0.155523 -0.7141 15.2567
0.0138188 -0.690412 15.0449
-0.0550129 -0.654629 14.7551
0.168661 -0.589059 14.1423
-1.11489 -0.671559 15.0216
-0.485701 -0.76033 16.0514
-0.0444766 -0.643617 14.8533
0.165866 -0.544341 13.8547
-1.12596 -0.967485 18.4811
-1.05448 -0.727169 16.0075
-1.73309 -1.15155 20.9159
-1.32191 -0.695618 15.7972
0.12681 -0.643006 15.2526
0.0174161 -0.728109 16.4095
-0.304435 -1.04945 20.7307
0.125136 -0.632994 15.2858
-1.27242 -0.612239 14.9764
0.0320924 -0.556384 14.3238
-1.31368 -0.699828 16.2814
0.0371267 -0.685872 16.1995
0.101259 -0.629874 15.5155
-1.11913 -1.03672 21.6364
-2.15587 -2.95335 60.9022
-0.111158 -0.536408 14.6216
0.222763 -0.513254 14.2157
0.0124082 -0.424397 13.7029
-1.15082 -0.592288 16.044
-1.25983 -0.660338 17.8281
-1.33039 -0.610291 16.8749
-1.16221 -0.565786 15.9873
-1.23092 -0.590656 16.6386
0.0123673 -0.444354 13.9545
0.0287354 -0.492173 14.458
0.0242117 -0.473697 13.8921
-0.161338 -0.524863 15.6407
0.0324787 -0.451782 14.3537
-1.24168 -0.55012 16.5562
-1.14135 -0.544612 16.3817
0.173485 -0.473205 14.1236
-0.649858 -0.5255 16.4674
-0.617285 -0.539489 17.0825
-1.33616 -0.513927 16.1366
-1.29746 -0.501936 15.9519
0.00483584 -0.464625 14.3726
-1.28822 -0.495744 16.0647
0.0370521 -0.455556 14.3313
-1.31557 -1.6791 30.0346
0.115015 -0.919584 14.2128
-0.133331 -0.555704 13.2526
0.201893 -0.516693 13.8191
-0.305714 -0.526421 16.3759
0.234817 -0.97054 14.4133
0.111851 -1.10036 14.9228
-0.179702 -0.446313 14.4367
0.112962 -0.644943 13.8264
-0.0547762 -0.652539 13.8886
0.0450067 -0.66005 14.0764
0.0753918 -0.630109 13.9351
-0.821735 -0.770324 14.8131
0.201835 -0.737152 14.6932
-0.387522 -0.406233 13.5355
0.133318 -0.675715 14.5136
-1.524 -1.02443 17.0686
0.158226 -0.614952 14.1448
-0.115012 -0.75584 15.3101
-0.112435 -0.754468 15.3487
-1.05856 -0.668412 14.6492
0.109144 -0.653888 14.6121
-0.31185 -0.818055 16.192
0.0083683 -0.684559 15.0037
-0.552862 -0.832763 16.4742
-0.10639 -0.654498 14.8166
-1.1393 -0.761008 15.8407
0.202492 -0.644297 14.7805
-1.04538 -0.636338 14.6885
-1.15872 -0.793246 16.2303
-0.216532 -0.824098 16.5808
-0.035798 -0.710634 15.5363
-1.26996 -0.761726 16.154
0.00151893 -0.744685 16.0412
-1.04901 -0.628461 14.8026
0.119017 -0.664374 15.2584
-1.67563 -1.47161 24.2555
-0.285888 -0.721577 16.0301
0.109933 -0.635029 15.0582
-1.17181 -1.04853 19.9355
-1.08331 -0.709977 16.0296
-0.919799 -0.713854 16.1869
0.231222 -0.890983 18.4827
-0.00456607 -0.445294 13.9099
-1.19523 -0.596985 14.827
-1.39489 -0.671396 15.806
0.148553 -0.618594 15.209
0.149214 -0.566054 14.5079
-1.54617 -0.678543 15.9939
-1.1383 -0.71844 16.5735
-0.187496 -1.25661 25.3096
-0.0868658 -0.579744 14.8047
-1.14033 -0.866169 19.0242
-1.73615 -1.97144 35.2989
0.206768 -0.505885 13.9334
-1.49928 -1.14574 24.8372
-1.35625 -0.627717 16.0701
-1.54322 -2.04384 41.4797
0.152103 -0.566907 15.2308
0.145467 -0.524043 14.4257
0.184228 -0.503259 14.0997
-1.18434 -0.604098 16.0917
-0.0369232 -0.557044 15.2503
-0.0331383 -0.555793 15.225
0.156066 -0.550172 15.2536
-0.410929 -0.836574 22.4087
0.0135801 -0.43991 13.9831
-1.30948 -0.752123 20.7032
-1.09358 -0.46702 15.9339
0.173728 -0.488488 14.1301
-1.01307 -0.577475 16.4797
-1.39598 -0.579398 17.035
-1.76274 -0.556227 16.5215
-0.759082 -0.565082 17.8532
-0.597565 -0.545006 17.0689
-0.202032 -0.52722 16.4327
0.174603 -0.46165 13.9524
-1.3769 -0.502238 15.7135
-1.29143 -0.510581 16.1638
-0.161192 -0.481035 14.9877
-1.44344 -0.500585 16.0047
-0.733056 -0.488118 15.5178
-0.698557 -0.485693 15.3884
-0.163873 -0.466906 14.4755
-0.0297669 -0.465856 14.4593
-1.66953 -0.495404 16.0898
-0.424739 -0.473423 15.0906
-0.0291984 -0.460257 14.3556
0.0372203 -0.452017 13.825
-0.17713 -0.464084 14.9025
-1.65963 -0.48026 16.1703
-0.00444288 -0.452054 14.3121
0.238841 -0.507661 10.1628
0.238674 -0.502727 10.1624
0.214964 -0.54593 10.2355
0.225039 -0.503579 10.1548
-1.15734 -0.601088 11.1876
-1.37701 -0.80642 11.6405
-1.38165 -0.80151 11.7068
-1.17666 -0.635968 11.2517
-1.14165 -0.578263 11.1999
-0.963638 -0.554673 11.3296
0.185293 -0.580769 12.2817
-1.11559 -0.436978 11.3036
-1.36654 -0.869065 11.7614
0.220485 -0.554217 10.5006
-1.13264 -0.600868 11.289
-1.092 -0.722695 12.2477
0.255346 -0.343218 10.48
-0.467444 -0.282152 10.1467
0.218154 -0.396056 10.723
0.245253 -0.365018 10.4705
0.137478 -0.326982 10.4863
-1.07576 -0.622686 16.216
-0.951386 -0.616406 11.1874
0.215611 -0.455736 11.4357
0.226125 -0.496053 10.7383
0.187806 -0.542566 11.7172
0.0962728 -0.343334 10.5019
-1.20936 -0.443694 12.195
0.141616 -0.491908 11.6225
0.143903 -0.745383 14.7202
0.0402741 -0.356626 11.2425
-0.991631 -0.557078 11.444
0.227084 -0.485529 10.89
0.236771 -0.473975 10.8582
-1.21366 -0.616869 12.6431
0.206969 -0.46487 10.9385
-1.21447 -0.524825 14.3818
-0.403474 -0.292767 10.5166
-0.219688 -0.854227 16.7876
-1.2559 -0.848869 12.0141
-1.21667 -0.531579 14.003
-1.26474 -0.347093 12.1308
-1.22414 -0.371747 11.9753
0.21296 -0.535867 11.9283
-1.02009 -0.744975 11.804
-1.25068 -0.531356 13.5639
0.224356 -0.530788 11.0573
-1.20801 -0.453194 12.0983
0.215576 -0.515467 11.0845
0.215759 -0.51304 11.0627
0.208395 -0.493583 11.6412
-0.203399 -0.561178 10.9019
0.129847 -0.463297 11.022
-1.05893 -0.696596 12.6008
-1.18245 -0.347273 12.6022
-0.0638668 -0.570121 11.1515
-1.33719 -0.580687 14.2624
0.215919 -0.538356 11.4386
-1.25336 -0.36598 12.7214
-1.22393 -0.60881 12.6475
-1.09155 -0.678818 13.1053
-1.30251 -0.970557 12.781
-1.33453 -0.946464 12.7937
-1.23674 -0.896568 12.6547
-1.26235 -0.53974 12.7487
-0.194337 -0.35618 12.0264
-1.25644 -0.945048 12.8853
-1.06399 -0.754251 14.7148
0.0203434 -0.678991 13.0692
-0.255755 -0.869822 16.2945
-1.06976 -0.630853 13.1004
-0.059754 -0.740725 13.3935
-0.680736 -0.57836 19.5611
-1.03471 -0.759415 14.6165
-0.13791 -0.726583 15.2288
-1.01924 -0.775281 14.8031
-0.402273 -0.511472 17.0434
-1.61277 -1.51773 23.1911
-1.63926 -1.50934 23.0958
-0.803122 -0.776096 14.8571
0.0132188 -0.670187 14.415
-0.39845 -0.754195 14.9637
-1.45999 -1.60521 20.7771
0.140545 -0.630362 14.407
-0.960618 -0.664776 14.6813
-0.207376 -0.858908 16.2573
-0.167929 -0.719697 15.1551
-0.551551 -0.813903 15.9402
-0.192595 -0.703802 15.1091
-1.22593 -0.832291 16.2457
-1.05488 -0.759153 16.0003
-1.21182 -1.00975 18.7177
-1.45229 -0.697551 15.9258
-0.275613 -1.0729 21.5501
-1.64209 -1.41074 22.8153
0.105929 -0.689503 16.8503
0.0734561 -0.713865 17.5792
0.129284 -0.696968 17.2976
-1.28416 -0.665318 17.7757
-1.38524 -0.614408 17.0511
-1.10593 -0.646334 19.0107
-0.225706 -0.623245 18.4809
0.150958 -0.480488 14.1299
-0.215238 -0.560971 16.8381
-0.138621 -0.489788 14.468
-1.44805 -0.521208 15.9323
-0.650959 -0.533324 17.1564
-0.176638 -0.496518 15.4965
-0.215591 -0.50018 16.0271
-0.633957 -0.484588 15.2998
-1.4357 -0.484456 15.8081
-0.108877 -0.449945 14.3744
0.0214997 -0.445205 13.8856
-0.124346 -0.443491 14.282
-0.0869516 -0.667814 15.1387
0.0137659 -0.62374 13.9084
-1.02361 -0.792113 14.7743
-1.01074 -0.748099 14.6889
-1.01875 -0.732836 14.6886
-0.947373 -0.670822 14.5326
-0.404321 -0.961462 15.0951
-0.0337734 -0.457252 14.3127
-1.06855 -0.848752 14.9647
-0.0909702 -0.460957 14.3863
-0.66505 -0.382474 14.7621
-0.360478 -0.803001 14.8772
-0.117769 -0.466141 14.5786
-0.810246 -0.777908 14.8516
-0.0585828 -0.472155 14.5212
0.0589665 -0.571142 21.0563
-0.116471 -0.926705 15.9144
-0.856426 -0.752195 14.8983
-1.21132 -0.501461 16.1785
-1.03393 -0.734749 15.0107
-2.07451 -1.57981 20.7178
0.0445394 -0.731806 15.0742
0.145296 -0.63415 14.4142
-0.168058 -0.888128 16.272
-0.186173 -0.552894 13.8417
-1.31216 -1.00362 17.2308
-0.199961 -0.700824 14.9792
0.140552 -0.632708 14.4745
-0.189396 -0.698373 14.9952
0.136474 -0.625906 14.473
-0.0660005 -0.68552 15.0046
0.186767 -0.64374 14.672
-0.162935 -0.785467 15.8655
-1.48387 -1.33825 20.7016
-0.0393213 -0.657445 14.882
-0.510595 -0.763659 15.8406
-0.234562 -0.864384 16.732
-0.115061 -0.448853 14.2926
-12.3299 -8.43539 260.946
-0.582749 -0.798468 16.4252
-0.240489 -0.928912 17.908
0.133536 -0.626099 14.8735
-0.130303 -0.675698 15.4207
-0.124343 -0.64778 15.1331
-1.42378 -0.726546 15.9763
-0.314974 -0.892038 17.8819
-0.123916 -0.801516 16.9064
-1.1157 -0.717218 16.0363
0.108477 -0.559785 14.3243
-0.148587 -0.752579 16.5551
-1.06815 -0.702246 16.0276
0.103378 -0.647079 15.4206
0.157189 -0.62455 15.4201
0.135804 -0.602171 15.1223
-0.191223 -1.11026 22.448
0.137225 -0.596491 15.1797
-1.31712 -1.13413 23.0759
-0.289071 -0.955865 20.5076
-1.07399 -0.647506 16.0493
-0.177008 -1.36801 27.0543
-0.1532 -0.650727 16.2585
-1.54894 -0.647302 16.253
-1.55169 -0.642569 16.301
-1.14024 -0.623578 16.1232
-1.04688 -0.62681 16.1862
-0.178958 -0.626186 16.2256
0.0352528 -0.453985 14.2797
-1.44644 -0.804088 19.601
-0.178791 -0.488032 15.2047
-1.64793 -1.54151 34.2691
0.0400886 -0.456835 14.2859
-1.16692 -0.612362 16.3368
-0.697332 -0.497449 15.6351
-1.16614 -0.605905 16.365
0.160521 -0.546831 15.1891
0.139378 -0.536235 14.9596
-0.173263 -0.674161 18.1666
-1.37864 -0.61779 17.0088
-0.310841 -0.777814 21.4152
-0.0903787 -0.514807 14.7357
-1.30685 -0.581093 16.5285
-1.73849 -0.832957 23.322
-1.05608 -0.618777 17.8857
0.152223 -0.497695 14.4911
0.139984 -0.48965 14.3431
-1.32164 -0.544035 16.1085
-0.100224 -0.485198 14.3684
0.0436535 -0.482196 14.2765
-1.43053 -0.525304 15.9194
-1.328 -0.528991 16.0823
-0.410962 -0.566706 17.7299
-0.729496 -0.498182 15.1206
-0.171343 -0.50115 15.3401
-1.26302 -0.523413 16.5288
-0.718545 -0.503031 15.6065
-0.955713 -0.77505 14.7589
-0.981245 -0.772691 14.7646
-0.982731 -0.711962 14.8577
0.133493 -0.488689 14.3904
0.132403 -0.486112 14.3952
-2.04849 -1.60834 32.3004
-1.69397 -2.42148 50.271
-0.865039 -0.803663 14.9325
-0.830062 -0.761966 14.8412
-0.922614 -0.72898 14.7623
-0.839534 -0.74429 14.8693
-0.313133 -0.763033 21.1943
-1.99708 -1.59916 20.5352
-0.162883 -0.893642 16.1438
-0.129646 -0.780769 15.4347
-0.168962 -0.902842 16.3514
0.136705 -0.621458 14.4691
-0.166622 -0.856683 16.2296
-0.858491 -3.07645 52.101
-0.0728749 -0.679264 14.9455
-0.159781 -0.786922 15.803
-1.42471 -0.798318 16.073
-0.126572 -0.709585 15.4071
-0.464976 -0.395768 14.4525
-0.332786 -0.768271 16.012
-0.108356 -0.786468 16.3077
0.114803 -0.634941 14.9145
-1.3381 -0.768316 16.1735
-1.43691 -1.1615 20.1979
-0.12672 -0.789691 16.5564
0.136777 -0.626544 14.95
-1.65757 -1.53047 24.0992
-0.0515022 -0.609252 14.8105
0.134424 -0.637884 15.1059
-0.281657 -0.941813 18.2964
-0.133763 -0.761172 16.4246
0.0170819 -0.553307 14.2701
-1.38267 -0.726879 16.2553
-1.29343 -0.727401 16.264
-1.0734 -0.705788 16.0285
-1.12917 -0.699016 16.025
-0.169143 -0.725545 16.3633
-1.08672 -0.690217 16.0006
-1.25819 -0.70073 16.2032
-1.15425 -0.674826 15.9696
-1.07903 -0.682359 16.1546
-0.221213 -0.684638 16.2173
-1.11165 -0.680345 16.2192
-1.81271 -2.31709 38.1275
-1.16457 -0.677169 16.2712
-0.0847301 -1.03516 21.2742
-0.883915 -0.880534 19.9959
-1.08032 -0.628228 16.304
-1.37637 -0.593099 15.7606
-1.32419 -0.678548 17.3774
-0.110693 -0.534357 14.7267
-0.108323 -0.534848 14.8061
-0.0652071 -0.440615 14.2339
-1.34238 -0.595664 16.0645
-1.46023 -0.812665 20.5645
-0.0374264 -0.852245 21.4812
0.0391942 -0.503484 14.3498
0.133895 -0.516524 14.8319
-0.314709 -0.475971 13.7724
0.148872 -0.499955 14.4788
-1.56028 -0.563267 16.2763
-1.37245 -0.557564 16.1255
-2.11726 -0.680435 19.6981
0.147979 -0.497535 14.4936
-1.32965 -0.553431 16.7512
-0.125716 -0.485883 14.3538
-0.185461 -0.450697 14.6493
-1.34141 -0.52945 16.1009
-0.150907 -0.442065 14.3167
-0.72818 -0.511234 15.4306
-1.17271 -0.520984 16.0503
-0.121993 -0.489448 14.7602
-1.28353 -0.525184 16.595
-0.207976 -0.510738 16.431
-0.121887 -0.490122 15.2262
-1.29798 -0.500412 15.9826
-0.307909 -0.473741 14.9264
-0.186394 -0.472941 14.8875
-0.238453 -0.471665 15.224
-0.618648 -0.467399 15.0373
-0.591301 -0.467439 15.0654
-0.686069 -0.459138 14.8985
-0.604222 -0.458849 15.0067
-0.107127 -0.45326 14.8514
-0.0614354 -0.454367 14.3158
0.128595 -0.541583 14.3797
0.0210231 -0.452038 14.2584
-0.820044 -0.77238 14.8774
-0.249869 -0.787394 15.395
-0.257273 -0.782208 15.5157
-0.190287 -0.468609 14.8352
-1.59078 -1.7373 22.1616
-0.190972 -0.822936 15.8994
0.198204 -0.6879 14.9766
-0.0955796 -0.728359 15.4152
-1.18551 -0.823228 16.1607
-0.204985 -0.850444 16.4359
-0.146341 -0.811388 16.2384
-0.521696 -0.771869 15.9636
-1.39898 -0.826513 16.4603
-1.11689 -0.769819 15.9887
-0.137862 -0.851012 16.6846
0.12882 -0.659074 15.1117
0.132382 -0.656791 15.0922
-1.85784 -1.8402 25.4457
-0.0995608 -0.691542 15.4275
0.128023 -0.648782 15.0922
0.141791 -0.649113 15.0954
-0.306134 -0.808016 16.7199
-0.108306 -0.771535 16.375
-1.12446 -0.73585 16.0769
-1.40377 -0.763293 16.4099
-1.09898 -0.730029 16.0827
0.050016 -0.7831 16.6357
0.159336 -0.607661 14.8815
-1.70382 -1.48066 23.836
-1.71873 -1.55414 24.5895
-1.11026 -0.712395 16.031
0.150472 -0.609061 15.0962
-1.12864 -0.68522 16.0048
-0.966764 -0.737599 16.7139
-0.511027 -0.676676 15.9912
-0.0397748 -0.66222 15.8284
-0.109713 -0.439254 14.2319
-0.135832 -0.678354 16.1797
-0.282885 -1.1871 22.9728
0.152055 -0.569321 14.8828
-1.54362 -0.655612 16.2911
0.0948453 -0.817712 18.792
-1.52258 -0.635571 16.0852
-0.110629 -0.456 14.3013
-1.1007 -0.647109 16.5121
-1.45613 -0.605032 15.8854
0.14726 -0.555425 15.0698
-0.951798 -0.811909 19.834
-1.46334 -0.59338 15.8874
-1.34931 -0.777456 19.7419
-1.36598 -0.576501 15.7833
-1.35489 -0.590969 16.0921
-1.38179 -0.815083 20.8649
-1.53611 -0.590876 16.2242
-1.30758 -0.583836 16.3972
-1.24735 -0.802114 21.8953
-0.079246 -0.579747 16.3646
-0.89169 -0.539454 15.4242
-0.247132 -0.756646 21.2834
-0.159865 -0.506229 14.7486
-0.115024 -0.495355 14.4173
0.128134 -0.507124 14.7967
-1.12801 -0.526624 15.6315
-0.0902622 -0.493607 14.7581
-1.22452 -0.5221 16.1722
-1.39114 -0.499493 15.9244
-1.29389 -0.500092 15.9874
-0.236845 -0.481152 15.5066
-0.209852 -0.480189 15.4006
-1.42451 -0.48085 15.7924
-1.47571 -0.483048 16.1345
-0.190555 -0.469783 15.1569
-0.0426693 -0.478615 14.2582
-0.0432549 -0.447214 14.2489
-0.164879 -1.48484 16.9759
-0.794122 -0.766719 14.8334
-0.821707 -0.760977 14.8867
-0.166981 -1.00672 16.4312
-0.132817 -0.920611 16.2845
-0.146064 -0.848008 15.9892
-0.130922 -0.80136 15.727
0.187356 -0.6605 14.8651
-0.298042 -0.735945 15.3889
0.134736 -0.65751 14.865
-0.211869 -0.815951 16.047
-0.25622 -0.856204 16.3786
-1.26696 -0.878519 16.5805
-1.33071 -0.852364 16.4382
-0.110113 -0.779224 15.9062
-0.0964844 -0.628074 14.8014
0.261025 -0.747223 15.7097
-0.0969579 -0.734315 15.684
0.0963892 -0.865095 16.7768
-0.105829 -0.721694 15.7043
-0.127857 -0.443549 14.2298
-0.0843182 -0.795114 16.3737
-0.119448 -0.664119 15.2913
-0.0591652 -0.788907 16.4998
0.129745 -0.671481 15.4359
0.14086 -0.600885 14.7947
-1.32872 -0.72301 15.9334
0.129985 -0.607277 14.8807
0.105589 -0.78321 16.7241
0.0679557 -0.727787 16.235
0.151663 -0.594459 14.8764
-0.213807 -0.781525 16.8582
0.138862 -0.615313 15.1265
-1.13094 -0.679865 16.0219
-1.21879 -0.687668 16.1829
-0.166962 -0.696186 16.3076
-0.287627 -0.99375 20.0505
-0.142089 -0.685594 16.258
0.0352066 -0.668493 16.0513
0.144116 -0.590972 15.1448
-1.14952 -0.663729 16.1147
0.142096 -0.582714 15.0854
-1.22344 -0.657096 16.1047
-1.30895 -0.663951 16.2823
-0.160401 -1.12611 22.7717
0.0562488 -0.697696 16.7902
-0.123655 -1.17939 25.0591
-0.667889 -0.407339 14.7935
-0.131163 -0.670096 16.8348
0.148127 -0.565408 15.2161
0.128507 -1.10311 24.6983
-1.81646 -1.65011 37.1871
-1.54679 -0.597682 16.2318
-1.50962 -0.595869 16.1952
-1.36077 -0.591522 16.1102
-0.0943967 -0.712357 18.7101
-1.59564 -1.37807 27.1668
-0.216454 -0.830146 22.0404
-1.17517 -0.699987 19.6212
-2.59134 -1.14804 31.3738
-0.2052 -0.60515 17.1716
-0.104048 -0.514304 14.7782
-1.31446 -0.56997 16.3541
-1.54447 -0.555624 16.3006
-1.38553 -0.541703 16.0494
-0.110045 -0.490523 14.3374
-0.497923 -0.543189 17.4995
-1.19608 -0.532026 16.1558
-0.169502 -0.529385 16.1418
-0.208998 -0.49039 14.4739
-0.103569 -0.485538 14.2769
-0.0907221 -0.493873 14.7523
-1.18832 -0.518644 16.0965
-0.294617 -0.516395 16.0857
-0.793726 -0.545977 18.2074
-0.169586 -0.492109 14.9744
-0.117341 -0.481222 14.3105
-0.075477 -0.479878 14.3442
-0.215488 -0.488834 15.7006
-0.178419 -0.469212 14.6056
-0.427277 -0.466212 14.9995
-0.196367 -0.466431 14.7399
-0.592142 -0.462984 15.0498
-0.172657 -0.463624 14.7411
-0.162129 -0.465136 14.4577
-0.11343 -0.465617 14.3468
-1.2156 -0.453492 16.0155
-0.710716 -0.45725 14.959
-0.593999 -0.454384 14.9047
-0.585457 -0.45447 14.8961
-0.676528 -0.445899 15.0443
-0.107106 -0.453862 14.3947
-0.111868 -0.455409 14.3174
-0.107861 -0.455637 14.3054
-0.0913128 -0.514319 14.4289
-0.0985298 -0.681361 14.408
-0.787814 -0.727665 14.7699
-0.0563591 -0.460814 14.3103
-0.865619 -0.4323 14.9478
-0.865069 -0.432838 14.9319
-0.052071 -0.511651 14.4139
-1.62774 -1.37221 31.5484
-0.89167 -0.998439 24.1238
-0.166349 -0.892196 15.8601
-0.153743 -0.877802 16.0529
-0.26821 -0.790042 15.5915
-0.732864 -0.446184 14.9889
-0.242764 -0.87569 16.4278
0.132408 -0.639396 14.8567
-0.57056 -0.812285 16.1116
-0.230791 -0.845681 16.355
-0.0943962 -0.842306 16.3321
-1.74213 -2.17695 49.3056
-1.12818 -0.789721 16.0246
0.159232 -0.929275 17.139
-0.0506221 -0.792516 16.2911
0.102345 -0.801118 16.3634
-1.05908 -0.741952 15.9087
-1.35363 -0.76242 16.1752
-0.0692562 -0.78456 16.3856
-0.122373 -0.480481 14.2965
-0.74735 -0.410211 14.8487
-1.25281 -0.75112 16.1295
-1.10957 -0.778413 23.4873
-1.70395 -1.62638 24.5858
0.12922 -0.595766 14.8735
0.138285 -0.613091 15.0743
-0.302352 -0.467 14.9888
-0.0284797 -0.717643 16.5168
-0.301653 -1.07721 20.8816
-0.198964 -0.957474 19.4554
0.0442585 -0.827262 17.9075
0.133468 -0.585961 15.0709
0.0628959 -0.804072 17.8721
-1.27707 -0.6705 16.2265
-0.164113 -0.444104 14.3537
-0.826462 -1.42886 26.5413
-1.37511 -0.643272 16.2745
-1.39924 -0.65731 16.4911
-1.15621 -0.628511 16.0527
-1.01973 -2.09336 39.7131
-0.117605 -0.460392 14.3402
-1.18175 -0.616399 16.0395
0.0295633 -0.723003 17.8651
-0.202956 -0.470507 14.7661
-0.23574 -0.469843 15.0343
-0.723967 -0.453239 14.9414
-0.122178 -0.479156 14.3132
-1.34253 -0.598863 16.134
-1.20297 -0.614004 16.4419
-0.174673 -0.589989 16.2534
-1.36529 -0.573365 16.2347
-0.0906884 -0.51621 14.809
-0.316949 -0.619935 18.0725
-0.212161 -0.631867 18.8085
-0.219972 -0.55315 17.0448
-0.134531 -0.505916 15.6609
-1.31384 -0.512813 16.2883
0.21598 -0.683293 14.9445
0.111927 -0.626664 14.7164
0.175007 -0.635125 14.8285
0.148875 -0.635961 14.8661
-0.113097 -0.465931 14.3603
-1.01962 -0.444301 15.3195
0.0113894 -0.722756 15.043
-0.22245 -0.891214 15.9369
-0.328039 -1.09617 21.9061
-0.220251 -0.895326 16.2976
-0.112198 -0.583594 14.4423
-0.275431 -0.467385 15.1274
-0.0939573 -0.841988 16.3468
-0.336563 -0.826061 16.314
-0.114755 -0.778453 15.977
-1.2082 -0.778588 15.9874
-0.39227 -0.838062 16.4446
-0.180845 -0.825408 16.4507
-0.0757091 -0.776576 16.0829
-0.329256 -0.783602 16.1724
-1.21783 -0.771711 16.1418
-0.0927667 -0.70594 15.647
-1.11586 -0.751522 16.0253
-1.51724 -1.48856 22.0506
-0.720632 -0.444673 15.0086
-1.25161 -0.743359 15.9973
-0.12856 -0.801478 16.5183
-0.0305263 -0.773268 16.3896
-1.63751 -1.49402 23.2015
-0.340888 -0.901525 17.8334
-0.173048 -0.738943 16.4778
-0.093046 -0.635648 15.4678
0.0747281 -0.735537 16.5198
-0.128595 -0.614918 15.2868
-0.522892 -0.705222 16.371
0.141295 -0.690748 16.2378
-1.31538 -0.695693 16.2941
-0.307563 -1.07933 21.0061
-1.37136 -0.654288 16.0608
-6.86705 -4.11056 65.9565
-0.478414 -0.450442 15.2345
0.0367845 -0.606738 15.7619
-1.37352 -0.649456 16.4049
-0.732513 -2.23365 42.1403
-1.36793 -0.607353 16.0905
-3.67375 -2.08482 42.9207
-0.164544 -0.698206 17.8486
-1.16577 -0.596589 16.0063
-1.31546 -0.712134 16.2787
-0.105208 -0.831626 21.678
-0.15023 -0.460051 14.3421
0.525872 -3.12191 75.8742
-0.219298 -0.620781 17.3682
-0.115672 -0.515348 14.7608
-0.174739 -0.57622 16.6
-0.109573 -0.509731 14.7326
-0.164633 -0.544619 15.8483
-0.950432 -0.587818 17.2997
-0.241261 -0.628922 19.1698
-0.704467 -0.592241 18.1647
-0.168848 -0.522089 15.7239
-0.15888 -0.529115 16.2798
-0.170458 -0.555294 18.0032
-0.118704 -0.492189 14.7468
-0.157032 -0.489768 14.7219
-0.0819309 -0.489905 14.758
-0.0564019 -0.485235 14.7614
-0.250056 -0.476705 15.2375
-0.156202 -0.476602 14.6625
-0.312877 -0.474012 15.095
-0.309867 -0.471449 14.9948
-0.676268 -0.470112 15.0358
-0.110398 -0.510385 14.4037
-0.0168194 -0.789499 15.9825
-0.834314 -0.448187 15.0938
-0.185138 -0.905915 16.177
-0.15559 -0.871815 16.1081
-1.40274 -1.04238 25.1651
-0.178039 -0.900619 16.2999
-0.2398 -0.853734 16.2903
-0.305802 -0.877436 16.5179
-1.15782 -0.801448 16.0657
-1.15334 -0.8018 16.0682
-0.392453 -0.833343 16.3018
-0.13678 -0.829776 16.2847
-0.104519 -0.771327 15.9566
-0.34365 -0.816187 16.3028
-0.242074 -0.82693 16.4246
-0.0446064 -0.80393 16.3484
0.248332 -0.662706 15.3006
-1.21451 -0.777178 16.1516
-0.149549 -0.801026 16.3673
-0.0504139 -0.806315 16.4108
-0.0305144 -0.816023 16.5331
-0.209207 -0.799291 16.4443
-1.06313 -0.743593 16.0145
-0.3 -0.761421 16.4812
0.206948 -0.736283 16.2721
0.191724 -0.7322 16.286
-1.10651 -0.699724 15.9748
-0.078686 -0.655281 15.5941
-0.213699 -0.67203 15.791
0.0139225 -0.587063 14.9955
-0.964219 -0.958849 18.9125
-0.198238 -0.700011 16.2866
0.116256 -0.6945 16.2427
-1.25875 -1.11587 20.902
0.133517 -0.685833 16.2092
-0.136631 -0.677125 16.221
0.0945991 -0.77921 17.4282
-0.326017 -1.05385 21.9783
-1.17671 -0.630575 16.0308
-0.148503 -0.55965 15.2031
-0.17584 -0.463363 14.4317
-1.25729 -1.06113 23.6646
-0.628431 -1.79139 36.0986
-1.14447 -0.831045 20.2908
-1.17692 -0.596131 16.0443
-0.348213 -0.4654 15.0553
-0.0657602 -0.728139 19.1911
0.028804 -0.668464 17.9303
-1.33097 -0.592048 16.2753
-0.111073 -0.516792 14.7704
-0.144498 -0.531457 15.1859
-0.228418 -0.604665 17.2162
-0.120306 -0.508378 14.7011
-1.31324 -0.560534 16.3482
-0.143841 -0.505676 14.7299
-1.39583 -0.660038 20.1326
-1.1109 -0.565979 17.0625
-1.02885 -0.571081 17.2813
-0.649243 -0.549463 17.109
-0.116678 -0.493693 14.7079
-0.181793 -0.49497 14.9177
-0.165004 -0.482787 14.7071
-0.144973 -0.479256 16.0603
-0.160881 -0.480904 14.7077
-0.172782 -0.476673 14.8046
-0.179696 -0.477315 14.7034
0.11828 -0.657648 15.0647
0.139112 -0.634352 15.0272
-0.186492 -0.495526 14.8974
-0.0191636 -0.491594 14.7758
-0.670524 -0.855548 15.2606
-0.103362 -0.753613 15.2895
-0.14112 -0.850491 15.8492
0.116739 -0.924092 16.219
-0.162886 -0.887922 16.0605
-0.144186 -0.826435 15.7712
-0.15318 -0.869032 16.1184
-0.228362 -0.892185 16.2734
-0.51265 -0.848077 16.2005
-0.206194 -0.856296 16.2536
-0.331611 -1.11567 21.2662
-0.358718 -0.451568 14.5881
-0.066572 -0.65192 15.0738
-1.17894 -0.804677 16.0797
-0.88468 -1.03673 17.5861
-0.321696 -0.833791 16.2803
-0.13142 -0.834435 16.3231
0.350157 -3.2041 45.2787
-0.106736 -0.694178 15.4463
-0.0664315 -0.822004 16.4334
-1.18038 -0.749713 15.9313
-0.118154 -0.803526 16.3404
-0.155502 -0.795865 16.4095
-0.205481 -0.788707 16.3976
-0.266401 -0.814353 16.7508
-0.0320033 -0.76649 16.3593
0.191486 -0.744479 16.2257
-0.346159 -1.31119 28.2219
-1.0358 -0.705617 15.9907
-1.14795 -0.705472 16.03
-0.759484 -0.852217 17.4654
-0.316154 -0.73637 16.4415
0.163432 -0.682307 16.1292
-1.32287 -0.679418 16.2848
-1.07123 -1.0938 21.1888
0.0612918 -0.77091 17.4125
-1.16599 -0.955119 20.255
-0.357362 -0.901754 19.5756
-3.71312 -3.07298 67.1002
-1.45419 -1.24705 24.8275
-0.244791 -1.07686 22.7545
0.0405448 -0.981343 21.6285
-1.20296 -0.616994 16.0739
-1.48211 -4.03958 80.5637
-1.01726 -0.616818 16.6899
-0.115098 -0.520251 14.7607
-0.155475 -0.520692 14.806
-1.3041 -1.00126 26.4325
0.0799751 -0.328981 18.6762
-0.315226 -0.46233 14.9875
-1.15085 -0.808233 22.7946
-0.266708 -0.711469 20.226
-0.119334 -0.50823 14.7739
-0.676145 -0.569683 16.8678
-0.27344 -0.574407 17.3488
-0.174375 -0.526893 15.7498
-0.203062 -0.51016 15.4971
-0.186331 -0.520436 16.4303
-0.755468 -0.528273 17.3601
-0.12153 -0.525325 17.3053
-0.342824 -0.466901 14.9966
-0.642612 -0.497607 15.1503
-0.17448 -0.471389 14.8259
-0.307782 -0.499092 15.8551
-0.157571 -0.491577 15.3676
-0.185686 -0.482991 14.8464
-0.159623 -0.888844 16.0633
0.119177 -0.894031 16.0915
-0.563587 -0.898212 16.2222
0.125994 -0.915912 16.3213
-0.266493 -0.785368 15.6914
-0.2539 -0.788314 15.7069
-0.181103 -0.840366 16.2707
-0.418064 -0.841399 16.3039
-0.137945 -0.48578 15.2851
-0.210668 -0.854958 16.4587
-0.00404726 -0.853034 16.4859
-0.183842 -0.473041 14.8083
-0.547789 -0.810828 16.2704
-0.241931 -0.826984 16.4194
-0.0136545 -0.649569 15.233
-1.10303 -0.755166 15.9781
-0.13809 -0.802041 16.3995
-1.10067 -0.755414 16.076
0.2638 -0.764852 16.1769
0.218974 -0.759157 16.2067
-0.195238 -0.517369 16.5574
-0.29022 -0.756665 16.3343
-0.288273 -0.796391 17.0588
-0.18414 -0.712784 16.32
-0.142756 -0.710126 16.3468
-0.190686 -0.893064 18.2583
-1.14478 -0.668652 15.9874
-0.143285 -0.688504 16.3415
0.164829 -0.677038 16.228
0.0614566 -0.791383 17.5685
-1.46621 -1.28857 24.5101
-0.318024 -0.939109 20.4037
-1.44012 -1.1574 24.041
0.0272267 -0.7287 17.8694
-1.03771 -0.662756 16.8877
-0.346348 -1.15693 25.2955
-0.29087 -1.08857 24.5764
0.116865 -0.607953 16.1577
-0.976707 -0.981055 22.6585
-0.136707 -0.710281 18.5584
0.0802531 -0.632863 17.1803
-0.611961 -0.519282 16.5652
-1.87744 -0.995376 25.1431
-1.33536 -0.684576 19.1434
-0.297175 -0.525897 15.1045
-0.153292 -0.571067 16.446
-0.0418977 -0.543325 15.6845
-1.94118 -0.697668 20.6428
-0.96726 -0.556589 16.3989
-0.682363 -0.559438 16.7593
-0.133494 -0.505313 14.7823
-0.15957 -0.479218 14.8101
-0.220275 -0.554377 16.8924
-0.123032 -0.503676 14.7792
-0.701754 -0.549878 17.2407
-1.06297 -0.536336 16.7771
-0.429199 -0.602556 18.8797
-0.978933 -1.94724 37.514
-0.858881 -2.32472 40.5262
-0.237478 -0.570926 10.9104
0.204275 -0.435607 11.1102
-0.239918 -0.628887 11.1773
0.207002 -0.545506 11.305
0.208787 -0.539463 11.3172
0.211691 -0.538123 11.3095
-1.27101 -0.645604 12.3922
-1.27485 -0.639745 12.3884
-1.1469 -0.62574 12.6232
0.192479 -0.55802 12.3101
0.223273 -0.412612 11.2735
-1.39293 -0.496225 12.7243
-0.0447529 -0.325078 10.9515
-0.0481683 -0.343685 10.9456
-1.29502 -0.661565 12.5469
-1.28747 -0.644133 12.5439
-0.0456741 -0.350881 10.9315
-1.2341 -0.408412 12.842
0.20776 -0.474597 11.4921
-0.150641 -0.495862 13.374
-1.30492 -0.985807 12.7719
-0.0635038 -0.442615 12.512
0.0330413 -0.627618 16.6829
0.210963 -0.526772 11.626
-1.16931 -0.372773 12.5883
-1.23726 -0.619515 13.1065
-1.11475 -0.57936 13.1255
-0.160771 -0.821468 16.0059
-1.11092 -0.763085 16.0238
-1.277 -0.945587 12.7862
0.00438572 -0.646846 11.6523
-0.336213 -0.321373 11.2484
-1.39286 -0.91081 13.6323
0.13732 -0.563103 13.2264
0.180049 -0.410149 11.6778
0.153487 -0.543229 11.9948
-0.897081 -0.514427 16.1428
-1.06921 -0.533044 12.4967
-1.2507 -0.545866 12.7272
-1.11703 -0.610678 13.4101
-0.0650012 -0.617721 11.6141
0.120065 -0.794244 13.1513
-0.724745 -0.32621 11.9335
0.116703 -0.638117 13.4027
0.160877 -0.998233 14.5555
0.176222 -0.455362 12.6466
-1.23789 -0.836847 13.0611
0.205009 -1.24722 16.5167
-1.29914 -0.570361 14.1892
-1.25236 -0.659356 13.1497
-1.12737 -0.739244 14.7894
-1.04974 -0.735892 14.6257
-1.10683 -0.521148 13.1002
-1.10823 -0.540737 13.0796
-1.08126 -0.744109 13.1376
-1.03833 -0.633181 13.0947
-1.02062 -0.611318 13.0852
0.178903 -0.519941 12.4823
-1.61497 -1.22417 14.3205
-0.965288 -0.644468 13.1329
-0.989908 -0.666417 13.1394
-1.31078 -0.631238 14.2317
-0.269714 -0.669023 14.695
-1.00022 -0.80106 14.7382
0.156868 -0.56128 13.532
-0.612907 -0.468425 15.4127
-1.17282 -0.78234 14.7783
-0.125395 -0.627209 14.3936
-1.39209 -0.834823 19.8927
-1.56444 -1.25887 17.5163
-0.251016 -0.505913 16.2763
-1.08467 -0.755912 17.642
-0.565132 -0.211847 8.76841
-0.960465 -0.833392 9.5739
0.227997 -0.532434 8.75257
0.231847 -0.451276 8.84183
0.192076 -0.549838 8.98648
0.190071 -0.523633 8.91712
0.226859 -0.545657 9.0031
0.248181 -0.431305 8.91968
-0.959567 -0.580751 10.1605
-1.08554 -0.945577 20.6483
-1.53358 -0.463183 10.798
0.129571 -0.491749 8.88814
0.213871 -0.535621 9.35201
0.108123 -0.527778 9.32454
0.10687 -0.280007 8.89005
0.254896 -0.452497 9.13044
0.0764062 -0.485889 9.39517
-1.27628 -0.616135 10.3487
