# .PCD v.6 - Point Cloud Data file format
FIELDS x y z
SIZE 4 4 4
TYPE F F F
COUNT 1 1 1
WIDTH 1771
HEIGHT 1
#VIEWPOINT 0 0 0 1 0 0 0
POINTS 1771
DATA ascii
-1.42325 -0.580358 14.9245
-0.652189 -0.961009 19.8614
-3.40664 -2.92652 51.9931
-1.43932 -0.625337 16.3521
-0.210923 -0.515402 14.6899
-1.3946 -0.61284 17.3107
-1.70953 -0.737983 19.9452
-1.99666 -1.7047 39.9534
-1.55343 -0.596053 18.6085
-1.81393 -0.791397 24.0628
-1.72695 -0.727723 22.8868
-0.549104 -0.446619 15.9584
-0.166647 -0.405807 13.7559
-0.724895 -0.43843 16.0045
-0.349706 -0.410636 14.2835
-0.742716 -0.424162 15.6005
-1.31233 -0.411076 15.4703
-0.383773 -0.385729 13.2659
-1.25137 -0.389147 14.5315
-0.64861 -0.399157 15.0894
-0.515414 -0.393951 15.0449
-1.24181 -0.380137 14.6047
-0.391518 -0.370481 13.2687
-0.40885 -0.186124 21.1424
-0.641825 -0.322409 14.1596
-0.137498 -0.533472 13.5705
-0.921179 -0.189636 15.9209
-0.226642 -0.660839 13.5479
-0.318133 -0.690731 14.2194
-0.428954 -0.856888 15.3308
-0.316314 -0.942323 15.859
-0.324122 -0.877715 15.6239
-0.334557 -0.671544 14.2705
-0.520037 -0.8697 15.623
-1.65654 -0.843506 15.5373
-1.34761 -0.746103 14.8676
-0.552219 -0.846179 15.7453
-1.27532 -0.713712 14.8535
-2.35724 -1.80975 22.9629
-1.26596 -0.665311 14.5637
-2.09075 -1.71446 22.5571
-0.182627 -0.635302 14.2876
-0.67471 -0.791943 15.7059
-2.12302 -1.63626 22.7726
-0.588931 -0.774958 15.6186
-0.525634 -0.788455 15.7843
-2.03139 -1.46261 21.8175
-0.280518 -0.662905 14.8971
-0.198369 -0.640026 14.7768
-1.20252 -0.703769 15.4845
-1.8233 -1.18614 20.4114
-0.656935 -0.722125 15.7613
-0.502828 -0.666808 15.3265
-0.478774 -0.64762 15.3831
-1.74723 -1.23233 22.5012
-0.240292 -0.644974 15.5596
-1.29443 -1.11296 21.7425
-1.5153 -1.23552 23.9135
-0.26572 -0.664989 16.2891
-1.11214 -0.639162 17.0582
-0.621868 -0.681205 18.1789
-1.31863 -0.521744 15.7294
-0.419129 -0.422756 13.6822
-0.913798 -0.498331 16.4908
-0.435136 -0.415696 13.8361
-0.453127 -0.425315 14.5663
-1.62837 -0.474526 17.6292
-0.161609 -0.406717 13.7693
-0.414514 -0.381851 13.7039
-0.600458 -0.368616 13.9402
-1.29607 -0.80332 15.7793
-1.50671 -0.772507 15.9927
-0.348524 -0.390548 13.3679
-0.325891 -0.404842 13.2915
-0.267693 -1.19772 15.5928
-1.27481 -0.398825 14.8329
-0.257036 -0.683222 13.8522
-0.277826 -0.624429 13.5842
-0.180989 -0.728418 14.2743
-0.432707 -0.931747 15.6404
-0.163546 -0.659117 14.1226
-0.487372 -0.844557 15.6196
-2.06793 -1.83757 22.8434
-1.41013 -0.781061 15.5155
-2.38397 -1.77397 23.1773
-2.72169 -2.04711 25.2747
-0.52289 -0.412702 15.3528
-0.187346 -0.604768 14.2234
-0.517544 -0.767811 15.5705
-0.724555 -0.783954 15.7618
-0.500911 -0.660652 15.4357
-1.46461 -0.810845 17.1814
-1.29269 -0.792762 17.2951
-1.74506 -1.22565 22.8367
-0.41655 -0.390142 13.6288
-0.177187 -0.558893 14.6711
-1.03862 -0.648575 16.026
-1.88703 -1.71948 30.1828
-1.80044 -1.61751 32.621
-1.54139 -0.581495 16.4548
-0.930136 -0.583568 16.9706
-0.398706 -0.416144 13.294
-0.405418 -0.385819 13.2893
-0.306347 -0.710763 13.9368
-0.413566 -0.506188 13.2321
-0.272202 -0.486544 13.5681
-0.40565 -0.401841 13.3182
-1.26132 -0.412355 14.7805
-2.14922 -0.912224 26.9388
-0.271623 -1.23183 15.692
-1.85974 -0.866579 24.9963
-1.85244 -1.10136 25.6085
-0.172393 -0.668793 14.2658
-1.36488 -0.781967 15.4351
-0.719993 -0.0189032 14.4283
-0.628561 -0.518414 13.6397
-1.28056 -0.752046 15.4152
-0.680203 -0.795657 15.7489
-1.33998 -0.722684 15.32
-0.306737 -0.611709 14.401
-1.21661 -0.816671 16.0928
-1.23215 -0.688737 15.1678
-2.21133 -1.56446 22.3349
-1.30587 -0.661779 14.9915
-2.24131 -1.57906 22.6195
-3.06729 -2.04194 26.9717
-1.35011 -0.775953 16.1084
-1.12061 -0.734699 15.7894
-1.16638 -0.877376 21.5077
-0.31725 -0.590347 14.5242
-0.509132 -0.32837 15.577
-0.65527 -0.329262 15.2509
-1.98748 -1.46389 25.2449
-0.160423 -0.526936 14.2507
-1.67016 -1.01135 20.742
-1.20803 -0.575741 15.3401
-0.692142 -0.509392 14.3683
-1.24342 -0.541862 15.2311
-1.61891 -0.647891 18.0401
-1.72206 -0.51948 17.3937
-0.776514 -0.571738 19.9593
-0.429015 -0.415699 13.6753
-0.389701 -0.415978 13.6754
-1.01646 -0.493081 17.2772
-0.786078 -0.445546 16.0357
-1.14415 -0.456523 17.3848
-0.433544 -0.387598 13.7732
-1.20686 -0.39422 14.6825
-0.207505 -0.682328 14.0626
-0.358023 -0.856497 14.9435
-0.238835 -0.896751 15.4204
-0.454872 -0.886557 15.5508
-0.258014 -0.613435 14.0222
-0.17529 -0.654421 14.2801
-0.492811 -0.904775 15.7541
-0.642549 -0.871433 15.8548
-1.38529 -0.777235 15.3916
-0.318246 -0.597078 14.2018
-0.209568 -0.669425 14.6953
-0.381712 -0.368233 13.7178
-0.427241 -0.793421 15.8159
-2.53393 -1.73953 23.7371
-1.42179 -0.837405 16.4851
-3.238 -2.27805 28.6224
-0.574433 -1.40886 21.3866
-0.600166 -0.743193 15.8163
-0.733094 -0.730498 15.821
-2.01102 -1.42529 22.6292
-2.92072 -2.97384 37.2844
-1.28701 -0.639318 15.2191
-1.30518 -0.801799 17.4118
-1.3693 -0.931902 18.866
-1.512 -0.118525 15.7677
-0.163739 -0.519138 14.2374
-0.711261 -0.753478 17.1197
-2.75957 -2.2341 36.1292
-0.204195 -0.571495 15.3311
-0.231534 -0.556724 15.3441
-0.598667 -0.663557 17.5298
-1.61947 -0.653676 18.2566
-0.686957 -0.331533 15.1689
-0.334825 -0.552343 16.1456
-1.35499 -0.510982 15.8017
-1.94153 -0.534626 17.1235
-0.430271 -0.362823 13.818
-0.283259 -0.497484 15.729
-0.552619 -0.561036 17.9137
-1.23432 -0.520888 17.0917
-1.25861 -0.66572 22.4728
-1.50714 -0.478069 17.2163
-1.39537 -0.478597 17.2057
-0.659713 -0.451091 16.3165
-0.522868 -0.438085 15.8421
-1.4155 -0.451511 17.924
-0.746618 -0.42211 15.6303
-0.504494 -0.415101 15.2789
-0.493749 -0.379725 14.3232
-0.19755 -0.729834 14.2036
-0.337586 -0.00223377 17.5554
-0.19568 -0.744389 14.4452
-0.236737 -0.635007 14.0857
-0.305958 -0.861969 15.3127
-0.520321 -0.915863 15.6465
-0.490243 -1.00064 16.0824
-0.479834 -0.845833 15.4667
-0.190837 -0.660161 14.5475
-1.34687 -0.763264 15.36
-0.258855 -0.559356 14.0168
-1.36132 -0.742199 15.285
-2.36166 -1.74668 22.622
-0.362101 -0.685637 15.0067
-2.18851 -1.73785 22.6923
-2.04256 -1.72178 22.7131
-0.397564 -0.65778 14.8648
-1.5166 -0.789696 15.9214
-1.24664 -0.781877 15.8954
-0.739066 -0.825111 16.3001
-1.31931 -0.710971 15.4789
-1.74117 -1.26523 19.8762
-0.717932 -0.718711 15.5534
-0.214258 -0.653838 15.0773
-0.303189 -0.559229 14.3913
-1.72448 -1.14275 19.7831
-2.1487 -1.31328 21.6726
-0.91993 -0.848838 17.2327
-0.465963 -0.592355 14.7928
-2.08617 -1.29699 22.421
-0.185949 -0.530757 14.3552
-0.693702 -0.655413 15.773
-0.425191 -0.637636 15.6828
-0.712243 -0.691795 16.7548
-0.258914 -0.542079 14.8938
-1.41084 -0.734961 18.0204
-0.412757 -0.444276 13.6689
-1.41747 -0.595074 16.3513
-0.313081 -0.585085 16.194
-0.423833 -0.440262 13.6722
-1.77896 -0.6217 17.1165
-0.349187 -0.550586 16.3031
-1.77277 -0.80121 24.0472
-1.44172 -0.491747 16.5836
-1.1993 -0.506505 17.4328
-1.17345 -0.489796 17.4938
-1.02847 -0.496147 18.2966
-0.328149 -0.436887 14.894
-1.61281 -0.454758 17.1198
-0.272335 -0.436559 15.3926
-0.655684 -0.421032 16.3483
-1.03933 -0.330269 16.0462
-0.593847 -0.380373 13.7014
-0.430287 -0.375693 13.8921
-0.277543 -0.620245 14.0058
-0.174723 -0.534076 14.2058
-0.402945 -0.387553 13.6724
-0.544798 -0.371381 14.1523
-0.184804 -0.717103 14.4481
-0.36315 -1.07136 16.1475
-3.13028 -2.39175 37.6997
-0.535992 -0.788383 15.7392
-0.728241 -0.796905 15.84
-0.39798 -0.652162 14.8297
-0.428113 -0.802824 15.9951
-0.342941 -0.399334 14.5647
-1.491 -0.777048 15.8772
-0.486005 -1.241 19.2547
-0.255669 -0.53794 14.0901
-0.253084 -0.536685 14.0808
-2.69883 -1.4442 21.041
-0.252254 -0.664951 15.2096
-0.283807 -0.400744 15.2414
-0.881017 -0.857529 17.1076
-0.548695 -0.744973 16.1632
-0.210102 -0.543579 14.3513
-0.635529 -0.83233 17.0923
-0.345569 -0.592157 14.8532
-0.302903 -0.537947 14.3722
-1.68211 -0.924248 18.1694
-2.06245 -1.18914 21.5687
-0.716368 -0.656709 15.8219
-1.11963 -1.07451 20.4691
-0.215191 -0.563908 14.8881
-1.78337 -0.826528 17.9957
-1.88255 -1.36151 24.1284
-0.316469 -0.704014 16.5382
-2.23743 -1.28013 23.4502
-1.32569 -0.619909 15.7989
-0.28192 -0.66562 16.404
-1.13439 -0.776396 17.9626
-0.960362 -0.282644 62.3104
-1.62284 -2.19487 41.6742
-1.57691 -0.745042 18.9627
-1.63768 -0.631354 17.4829
-0.904533 -0.510563 15.7576
-1.43712 -0.559479 17.4427
-0.535923 -0.477108 15.6768
-0.364094 -0.450943 14.7295
-4.85579 -2.7033 109.215
-0.356588 -0.405102 14.7392
-0.933385 -0.535535 18.4984
-1.06212 -1.24278 16.3702
-0.309551 -0.69193 14.3874
-0.362937 -1.06741 16.1207
-0.240297 -0.892779 15.4062
-0.3831 -0.732114 15.2717
-0.367707 -0.729331 15.308
-0.42226 -0.637755 14.7103
-0.226791 -0.665298 14.9075
-1.2949 -0.780132 15.8056
-2.17361 -1.75236 22.6879
-2.10378 -1.76838 22.9372
-0.669823 -0.795278 15.969
-0.679767 -0.765108 15.8306
-0.355425 -0.583135 14.5678
-1.76114 -1.32562 21.16
-0.490776 -0.648263 15.3518
-0.170246 -0.649282 15.3491
-0.187842 -0.53831 14.3585
-1.81998 -1.00006 18.6421
-1.81558 -1.18612 20.7545
-0.695477 -0.715737 17.0926
-0.216358 -0.539182 15.0825
-0.310077 -0.6001 16.3389
-1.70307 -0.61945 17.133
-1.47298 -0.647052 18.1748
-1.74611 -0.740025 20.1058
-1.58077 -0.604707 17.6863
-1.41717 -0.622546 18.0737
-1.8089 -0.661536 19.2552
-1.43061 -0.571403 17.3002
-1.50743 -0.54725 17.1007
-1.75718 -0.722657 23.0417
-0.25608 -0.50907 16.2766
-5.1243 -4.17875 138.186
-0.788144 -0.0298808 16.0311
-0.350425 -0.444461 15.1355
-1.19751 -0.456875 16.7809
-0.6595 -0.442221 16.0151
-0.580917 -0.417498 15.4409
-0.954817 -0.668026 21.2673
-0.431374 -0.364221 13.8889
-2.44916 0.354384 37.7752
-0.409377 -0.367026 13.8678
-1.16516 -0.213393 16.6042
-2.58786 -2.48824 35.526
-0.165294 -0.640429 14.5528
-0.195258 -1.02204 15.4151
-2.95695 -2.35633 47.0969
-0.263439 -1.13305 15.9161
-0.0234156 1.17556 20.6715
-0.284029 -0.905301 15.2315
-0.741075 -0.329764 15.8325
-0.22431 -0.928104 15.3877
-0.258041 -0.910812 15.3524
-0.429644 -0.845373 15.288
-0.521582 -0.922573 15.668
-0.498494 -0.919026 15.6736
-0.301208 -0.649854 14.4058
-0.130252 -0.826159 15.3911
-0.181991 -0.688936 14.7882
-0.576474 -0.859147 15.7757
-0.58132 -0.328143 16.2754
-0.454422 -0.811497 15.8244
-0.325012 -0.639339 14.7302
-2.19609 -1.61087 21.3517
-0.64935 -0.762122 15.6706
-1.25295 -0.710714 15.3676
-0.219442 -0.663562 15.0648
-0.228613 -0.655831 15.0357
-0.645981 -0.733875 15.7137
-0.720323 -0.723339 15.711
-1.92745 -1.51748 22.4724
-1.31118 -0.804099 16.8603
-1.17799 -0.85306 17.4506
-1.67248 -1.00258 19.0897
-0.302043 -0.516161 14.3678
-1.58756 -0.792797 17.3668
-2.71287 -2.51864 35.6713
-0.491604 -0.641234 15.7217
-0.655589 -0.751874 16.9782
-2.50479 -2.05769 31.997
-2.19143 -1.26419 23.2356
-0.310208 -0.504448 14.3599
-0.466262 -0.579873 15.3886
-1.59934 -0.714439 17.5467
-0.213202 -0.522255 14.8148
-0.554924 -0.68713 17.2306
-0.289334 -0.574753 15.6128
-1.50792 -0.640161 17.1689
-0.311728 -0.577382 16.152
-0.292308 -0.573252 16.1816
-0.287089 -0.517209 15.7066
-0.793018 -0.741673 21.6931
-0.290555 -0.548379 16.7483
-1.65025 -0.60109 18.4581
-1.71034 -0.766699 22.8959
-1.65707 -0.816208 24.2167
-0.283624 -0.528084 16.3934
-1.2685 -0.79561 30.0273
-1.67596 -0.523765 18.785
-0.809128 -0.460874 16.251
-1.1218 -0.487166 19.2953
-0.698129 -0.44266 15.7492
-0.912811 -0.442639 16.2639
-0.658315 -0.438629 15.8291
-0.606712 -0.321697 16.5044
-0.393346 -0.417005 15.2136
-0.304163 -0.412975 14.6785
-0.653148 -0.409861 14.2137
-0.60316 -0.408959 14.9596
-0.433141 -0.406012 14.9586
-1.30351 -0.386672 15.681
-0.326544 -0.601114 14.2119
-1.2784 -0.724089 15.4226
-0.320244 -0.535915 14.2164
-3.16605 -2.8526 55.5153
-0.357481 -0.398901 14.559
-0.402832 1.48211 22.836
-0.652763 -0.42132 15.9442
-0.544266 -0.866685 15.7103
-0.575565 -0.860813 15.7053
-0.621327 -0.838789 15.7688
-0.440363 -0.641154 14.7849
-1.23236 -0.762069 15.5808
-0.574142 -0.436243 15.8377
-0.650395 -0.76255 15.6839
-1.4284 -0.445814 17.1909
-0.721341 -0.826964 16.3058
-0.26332 -2.8851 31.5936
-2.19843 -1.61364 22.5604
-2.77784 -1.49605 21.8167
-0.344742 -0.601131 14.8255
-0.350272 -0.595232 14.8256
-0.347127 -0.611788 15.2629
-1.27918 -0.642739 15.6383
-1.52415 -0.74223 17.1322
-2.50086 -2.25226 34.6855
-1.50062 -0.648571 17.0971
-0.282304 -0.566792 16.0961
-2.40673 -2.38856 50.0549
-1.655 -0.610277 17.243
-0.472977 -0.663229 18.1769
-0.618825 -0.644714 19.1989
-1.59863 -0.546153 17.4298
-0.240267 -0.464216 15.0538
-1.61879 -0.512044 17.0899
-1.29177 -0.452855 17.0876
-0.20329 -0.530801 14.78
-0.20496 -0.524133 14.7901
-0.479639 -0.988794 15.9761
-0.452976 -0.91877 15.7152
-0.642717 -0.86613 15.8092
-0.724731 -0.791637 15.8055
-0.581701 -0.737086 15.6549
-0.431114 -0.718963 15.5595
-2.57022 -1.82406 23.2808
-2.0323 -1.84741 23.433
-0.603811 -0.746247 15.8395
-2.472 -1.80238 23.552
-0.577631 -0.695727 15.6339
-0.670113 -0.684391 15.6466
-0.540245 -0.688053 15.708
-0.365262 -0.632128 15.2553
-0.481111 -0.636526 15.3517
-0.688834 -0.694226 15.8744
-0.314335 -0.560602 14.8024
-1.3923 -0.783961 16.875
-2.01147 -1.47604 23.1719
-0.69505 -0.636727 15.5243
-0.298491 -0.726793 16.3344
-0.674617 -0.789044 16.9704
-1.47964 -0.924429 18.6213
-0.596844 -0.76345 17.216
-0.220774 -0.537356 14.8535
-2.04511 -1.2208 29.9864
-1.74464 -0.77028 17.6712
-1.49577 -0.722242 17.1044
-1.39977 -0.827061 31.8086
-0.248396 -0.555768 15.3944
-1.89498 -0.921361 21.0439
-0.346001 -0.403341 14.7634
-1.65923 -0.628151 17.1067
-0.23217 -0.519837 15.4245
-1.58273 -0.649803 18.2864
-0.54234 -0.583319 17.7697
-0.626737 -0.424923 15.9122
-0.50022 -0.517483 16.2051
-0.480887 -0.464049 15.0862
-0.484251 -0.46482 15.2336
-1.53554 -0.469733 17.1295
-0.792034 -0.459868 16.3612
-0.38825 -0.441261 15.2542
-0.519351 -0.439565 15.4467
-0.749802 -0.436996 15.6443
-0.555463 -0.611081 12.0038
-0.0752856 -0.42436 12.1016
-0.0739913 -0.398304 12.0983
-0.318966 -0.283608 12.5744
-0.222073 -0.31421 12.1279
-1.55215 -1.07509 14.0018
-0.360522 -0.529286 11.8086
-0.366543 -0.521387 11.8129
-0.36042 -0.516238 11.8214
-0.457379 -0.297649 12.4608
-0.327235 -0.368483 11.8524
-0.276942 -0.471771 13.8378
-0.459264 -0.571195 12.0417
-0.459282 -0.559425 12.0285
-0.252079 -0.631096 13.4446
-0.383722 -0.277223 11.7244
-0.555114 -0.296928 12.6094
-0.257598 -0.359992 13.3503
-0.271158 -0.97004 14.915
-1.19657 -0.342244 13.6538
-0.319678 -0.35407 13.3173
-0.445614 -0.33216 12.7233
-1.29506 -0.733241 14.3378
-0.12832 -1.12389 15.6211
-0.144703 -0.686272 13.7052
-1.23441 -0.386371 13.6757
-0.415501 -0.589157 17.0276
-0.334862 -0.663451 17.0089
-0.107856 -0.442171 12.8731
-1.49298 -0.740478 14.3044
-0.221415 -0.47374 12.6558
-1.26626 -0.753716 15.9056
-1.38473 -0.462036 14.1635
-1.19614 -1.55611 29.3126
-0.252789 -0.655966 13.1942
-0.39722 -0.372561 13.3201
-0.467906 -0.89923 15.6132
-0.413954 -0.954442 15.6655
-0.357473 -0.693104 14.7415
-4.01646 -5.30175 105.486
-2.00883 -1.72688 22.919
-0.220609 -0.629628 15.0615
-0.484704 -0.905311 15.6322
-0.511161 -0.89453 15.6988
-0.536377 -0.841772 15.6602
-0.575846 -0.848731 15.7216
-0.638212 -0.823556 15.7251
-0.579047 -0.81296 15.744
-0.345538 -0.62189 14.8255
-0.582735 -0.74684 15.7066
-1.44208 -1.38428 38.1727
-0.648182 -0.405671 14.9729
-0.363815 -0.639703 15.2485
-2.52831 -1.72316 22.357
-0.425314 -1.15716 18.6353
-4.06112 -2.30609 26.3434
-2.24154 -1.66166 22.0596
-0.631448 -0.686596 15.7457
-3.10449 -1.57424 22.2853
-0.693505 -0.676467 15.727
-3.0607 -1.53242 22.3554
-2.98163 -1.4123 21.6789
-0.712672 -0.648666 15.6522
-0.339049 -0.546806 14.8301
-0.692823 -0.796908 17.041
-0.275736 -0.689556 16.1137
-1.62597 -1.09785 19.7371
-0.470205 -0.625494 15.6933
-1.51182 -0.923426 18.5437
-2.45137 -2.4781 33.1415
-0.276682 -0.654629 16.0787
-1.96878 -1.18416 21.429
-1.77832 -1.1857 21.5955
-0.698698 -0.766102 17.7012
-0.353394 -0.543095 15.1958
-0.334183 -0.542403 15.218
-1.60303 -1.06503 21.8416
-0.793149 -0.974312 20.6877
-0.573119 -0.63983 16.9725
-1.50909 -0.638276 17.0721
-1.62352 -0.64819 17.3315
-0.56597 -0.636072 17.1084
-1.77397 -1.11879 25.4516
-1.63323 -0.602205 17.1208
-1.57289 -0.604644 17.1641
-0.669478 -0.831606 21.368
-0.37511 -0.542926 16.0505
-1.56859 -0.628339 17.9091
-1.67332 -0.74229 20.2152
-2.43298 -1.0055 25.5618
-0.361521 -0.487436 15.2326
-1.64946 -0.574124 17.9861
-0.946047 -0.614753 19.4231
-1.39404 -0.556345 18.5352
-0.457699 -0.420312 15.2536
-0.504005 -0.509453 16.7466
-1.55761 -0.582 19.9469
-0.509408 -0.508457 16.9373
-1.11865 -0.523862 17.919
-0.658238 -0.537723 18.4891
-0.735849 -0.500534 17.947
-1.66625 -0.485954 17.616
-1.25517 -0.482858 17.9108
-0.708827 -0.47428 17.1727
-0.66277 -0.445686 15.8522
-0.459676 -0.436731 15.312
-0.631576 -0.434012 15.9769
-0.704618 -0.431303 14.9178
-0.666296 -0.419592 15.6664
-0.526275 -0.887461 15.6367
-0.386073 -0.739927 15.206
-0.338202 -0.617726 14.8357
-0.596071 -0.757735 15.6713
-0.342521 -0.564026 14.8318
-0.342268 -0.546881 14.8235
-0.375897 -0.426577 14.8359
-0.373532 -0.419988 14.8441
-20.4839 -18.9426 299.841
-0.530295 -0.863761 15.6827
-2.68907 -2.18858 35.6775
-0.633114 -0.863703 15.8082
-0.533893 -0.797099 15.5971
-0.657471 -0.768933 15.5579
-0.68438 -0.794447 15.7533
-0.720964 -0.789002 15.7614
-0.663333 -0.763245 15.6351
-0.605502 -0.768064 15.6898
-1.14875 -0.784827 15.8386
-0.43686 -0.41689 15.1746
-2.5849 -1.7173 22.1553
-0.620923 -0.695788 15.6779
-0.473993 -0.644743 15.353
-2.37711 -1.75762 22.7384
-2.24791 -1.59071 21.7454
-0.591916 -0.705034 15.8267
-2.06385 -1.80121 23.5216
-0.494956 -0.743449 16.1953
-0.566665 -0.672305 15.7222
-0.424817 -0.420309 15.257
-0.720475 -0.680254 15.8085
-3.18198 -1.59252 22.5904
-0.712459 -0.803781 17.0545
-2.01076 -1.44102 22.4518
-2.01585 -1.64684 24.5213
-1.90766 -1.22492 21.2615
-2.05814 -2.3567 31.5652
-2.36753 -2.57261 33.909
-0.489087 -0.667766 16.2249
-0.900986 -0.425777 15.32
-2.10103 -1.53703 24.7011
-0.315512 -0.840355 18.0836
-0.302849 -0.642768 16.3351
-0.217729 -0.552804 15.3874
-1.58456 -0.965496 20.4286
-1.86627 -1.40856 25.7559
-1.78483 -1.26463 24.2759
-0.372305 -0.725274 17.6732
-1.48405 -0.6496 16.9943
-1.73478 -1.25363 26.287
-0.502905 -0.587507 16.2864
-2.46643 -3.12867 59.8775
-5.20046 -5.43666 109.124
-0.700885 -0.662104 18.3187
-1.49476 -0.588457 17.0894
-0.730516 -0.696307 19.1669
-1.61656 -0.861316 22.8318
-1.63898 -0.593293 17.4685
-1.70801 -0.974293 27.3962
-1.40456 -0.591565 18.3556
-1.72981 -0.767202 23.2064
-1.48781 -0.572588 18.3193
-0.651601 -0.532419 18.3511
-0.456246 -0.474118 15.6911
-0.694403 -0.544219 19.3807
-1.11952 -0.481735 17.337
-0.796456 -0.483974 17.4267
-1.45242 -0.469833 16.9856
-0.820908 -0.436144 16.0201
-0.839586 -0.432008 16.05
-0.420083 -0.794043 15.4164
-0.601427 -0.844402 15.6796
-0.227759 -0.702596 15.3686
-0.675098 -0.649442 15.6473
-0.227029 -0.513838 15.2857
-0.217569 -0.504637 15.3768
-0.213887 -0.490708 15.4034
-0.327037 -0.443978 15.2042
-0.754472 -0.986786 22.8893
-0.618956 -0.439778 15.9854
-0.703129 -0.900027 16.0696
-0.600912 -0.821158 15.7659
-0.677528 -0.809769 15.7475
-0.547581 -0.413645 16.0141
-0.669621 -0.439478 16.0283
-1.10538 -0.75631 15.739
-0.480287 -0.643882 15.326
-0.606449 -0.679235 15.6037
-0.710545 -0.682291 15.7031
-2.46516 -1.62666 22.0128
-0.709191 -0.670763 15.7774
-0.353441 -0.698214 15.9542
-0.647386 -0.443369 15.9982
-0.695642 -0.654296 15.7054
-1.40127 -0.837796 17.1547
-2.41043 -1.79628 24.351
-0.505981 -0.640919 15.6438
-2.48637 -1.71972 23.9324
-0.269593 -0.65181 15.7885
-0.635633 -0.826171 17.2181
-0.484642 -0.629082 15.6952
-0.503631 -0.431457 15.3059
-3.01819 -1.31656 21.7221
-1.68187 -0.992708 18.9006
-2.26643 -1.47145 23.1536
-0.599626 -0.814286 17.4417
-1.96607 -1.15026 21.5313
-2.41758 -2.30264 33.4016
-2.22977 -1.4768 25.1335
-1.7383 -1.35456 23.8191
-0.316993 -0.783342 17.8108
-0.71543 -0.702122 17.163
-0.272065 -0.591492 16.0389
-0.622041 -0.432514 15.9418
-2.50797 -2.31518 44.2716
-0.544817 -0.685364 18.0551
-0.649222 -0.443261 15.9282
-1.35666 -0.614131 17.1904
-0.456922 -0.509334 15.3104
-0.752587 -0.442668 15.9027
-0.507577 -0.535929 16.1105
-0.359222 -0.489937 15.2319
-1.3952 -0.643203 19.3042
-0.666986 -0.446847 15.9494
-1.72353 -0.758533 23.1337
-0.591863 -0.560087 17.4561
-0.753133 -0.431963 15.91
-1.78693 -0.604816 19.1656
-1.62424 -0.632985 20.3361
-0.53162 -0.481048 15.689
-0.464127 -0.469738 15.2375
-1.34743 -0.463586 16.9417
-0.466357 -0.45584 15.6296
-2.96095 -2.21197 63.6134
-0.535875 -0.675856 15.6858
-0.710493 -0.766535 15.7222
-1.49437 -1.13699 27.0163
-0.477047 -0.634812 15.3374
-0.58814 -0.717905 15.8825
-2.61886 -1.60264 21.339
-2.54858 -2.03253 41.4502
-0.327127 -0.691271 15.7663
-0.615107 -0.692539 15.8081
-0.521607 -0.689905 15.7869
-0.668379 -0.681243 15.857
-0.673509 -0.646405 15.7037
-0.68828 -0.709022 16.2173
-0.605105 -0.831125 17.092
-2.15184 -1.48942 22.052
-0.262754 -0.686649 16.1074
-1.4748 -0.78532 17.0607
-0.328352 -0.733774 16.5716
-0.458384 -0.618342 15.6903
-2.00794 -1.43788 22.5231
-0.717319 -0.792965 17.2572
-0.423522 -0.622757 15.7963
-1.49775 -0.918686 18.524
-0.27823 -0.665882 16.3233
-1.59377 -0.774774 18.6705
-0.251067 -0.565852 15.8231
-1.82412 -0.888792 20.6701
-0.272789 -0.553322 15.7796
-2.07517 -1.12541 24.3034
-1.39345 -0.784158 19.4443
-1.38265 -0.683102 18.0533
-0.453791 -0.530563 15.7745
-1.51375 -0.65408 18.389
-1.73648 -0.62177 18.6473
-1.8133 -0.674329 19.8918
-1.691 -0.722293 21.3238
-0.552821 -0.560317 17.8111
-1.54731 -0.630557 21.0689
-0.908852 -0.470064 16.9264
-0.805215 -0.475185 17.3491
-0.646518 -0.469408 17.2389
-0.527475 -0.43789 15.7516
-0.565589 -0.433793 15.8566
-0.731808 -0.418449 15.9459
-0.436559 -0.425213 15.2249
-0.435167 -0.418726 15.197
-0.602036 -0.821366 15.776
-0.693434 -0.800847 15.7248
-0.505099 -0.74248 15.5832
-0.276558 -0.793907 15.7812
-0.50008 -0.64225 15.7378
-0.393301 -0.421419 15.1848
-0.463913 -0.419811 15.241
-0.549236 -0.427952 15.8317
-0.678885 -0.433525 15.9672
-0.687382 -0.448181 16.1001
-0.360859 -0.715092 15.7016
-7.94933 -6.31874 47.2376
-0.656618 -0.687632 15.9125
-0.309406 -0.653924 15.6904
-2.26063 -1.87959 23.3439
-2.25597 -1.65949 22.4923
-0.705388 -0.455758 16.9927
-2.17065 -1.70886 23.0412
-0.264122 -0.660511 15.8654
-2.23884 -1.6755 23.0558
-2.17465 -1.89289 24.5602
-3.00616 -2.69108 30.1437
-0.529671 -0.688998 16.1171
-0.689968 -0.943952 18.046
-0.428641 -0.614458 15.6436
-0.938956 -0.832131 17.3345
-0.665268 -0.836954 17.3543
-0.47178 -0.618448 15.7113
-2.17035 -1.41449 22.2276
-2.00907 -1.42818 22.5892
-0.88779 -0.775773 17.1548
-1.79525 -0.449244 17.8758
-0.681293 -0.794457 17.3429
-0.724632 -0.78635 17.3265
-2.16301 -2.21925 29.8751
-2.12723 -1.64161 25.0603
-1.50014 -0.736344 17.0883
-1.99841 -1.38122 22.9088
-1.51786 -0.860858 18.5812
-1.37173 -0.916024 19.3092
-2.36217 -1.38774 24.8981
-0.535721 -0.708 17.4092
-0.295375 -0.580548 16.0314
-0.391087 -0.634985 16.7716
-0.794156 -0.863874 20.1561
-0.410425 -0.602396 16.705
-1.50354 -0.693892 18.3203
-1.80782 -1.13207 25.149
-1.51089 -0.613508 17.2493
-1.61126 -0.748621 19.498
-2.12407 -2.59792 50.1696
-0.426969 -0.671945 18.6453
-0.433322 -0.665213 18.6813
-0.632358 -0.79682 21.9368
-1.69321 -0.728777 21.2259
-0.569846 -0.567564 17.3355
-1.43607 -0.601095 18.5375
-1.89349 -0.706523 21.4015
-0.756508 -0.72621 21.7024
-1.60479 -0.564318 17.7777
-1.74598 -0.72148 22.6427
-0.524453 -0.532268 16.9472
-0.723711 -0.520426 17.3553
-0.659815 -0.511733 18.8449
-0.961236 -0.470131 17.1075
-0.562928 -0.467061 16.3112
-0.347273 -0.728045 15.6407
-0.474757 -0.640135 15.3318
-0.239047 -0.608902 15.8285
-0.676504 -0.471604 17.528
-0.78476 -0.468423 17.1207
-0.648633 -0.682164 15.8745
-0.686711 -0.666759 15.8621
-2.55352 -1.70408 22.6286
-1.72097 -1.1685 19.2455
-0.805009 -0.811815 16.9583
-0.779968 -0.834158 17.1372
-1.1981 -0.470163 17.2277
-2.31208 -1.49392 21.7432
-2.11771 -1.60013 22.446
-0.634625 -0.831759 17.2928
-0.710421 -0.799119 17.1018
-1.93493 -0.94145 18.3427
-1.74141 -1.28313 21.2888
-0.552669 -0.762202 17.077
-1.43656 -0.502338 18.626
-0.453457 -0.769522 17.2136
-0.504034 -0.636123 16.1273
-0.679605 -0.756257 17.2588
-1.80773 -1.20023 21.5338
-1.56809 -0.900334 18.9256
-0.654026 -0.725936 17.2768
-1.64161 -1.21767 22.4046
-3.04724 -3.48999 46.1547
-0.655449 -0.41405 15.9694
-2.03548 -1.34056 24.2861
-2.47595 -2.26359 34.7145
-1.86027 -0.966355 20.9309
-1.78071 -1.19756 24.1894
-1.46696 -0.707349 18.1886
-1.88506 -0.945616 21.5367
-2.58443 -1.78476 33.2161
-1.69093 -0.721139 19.0324
-0.399551 -0.717157 19.0423
-1.99785 -1.94603 42.3941
-1.28502 -0.866226 23.2814
-1.87062 -0.682503 20.0395
-0.526273 -0.54502 17.3582
-0.611311 -0.501637 17.1669
-1.42128 -0.504276 18.2099
-0.457831 -0.456258 15.5629
-0.62414 -0.423426 15.8572
-0.841667 -0.66289 23.3115
-0.648 -0.4257 16.0708
-0.630115 -0.677407 15.7965
-0.680552 -0.674072 15.8779
-0.480558 -0.633146 15.6854
-1.36763 -0.824305 16.9903
-0.558761 -0.850116 17.1321
-2.84113 -1.766 22.9223
-2.31938 -1.48068 21.1377
-0.82763 -0.842869 17.1611
-2.03669 -1.68326 22.8786
-0.461209 -0.616142 15.7783
-2.38208 -1.63487 22.6859
-0.645899 -0.840758 17.3686
-0.606884 -0.828112 17.2798
-0.666945 -0.801782 17.1359
-0.515941 -0.822132 17.3788
-2.17371 -1.41271 22.202
-0.703404 -0.779982 17.3087
-0.734795 -0.781484 17.3647
-0.280557 -0.618124 16.033
-0.295415 -0.824869 17.7856
-2.06128 -1.26855 21.8621
-1.96684 -2.1486 29.4813
-0.333239 -0.762646 17.3555
-2.39578 -1.73174 26.5219
-0.675646 -0.964858 19.3757
-0.300023 -0.714476 17.0997
-0.594935 -0.689067 17.0583
-0.309142 -0.688874 17.1298
-1.575 -0.807624 18.5682
-0.497342 -0.705493 17.4346
-1.73476 -0.986242 20.7662
-1.94374 -1.25047 23.7587
-1.74839 -1.22349 23.8538
-1.82258 -0.906814 20.6931
-1.82556 -0.900816 20.9427
-1.89358 -0.899223 21.2938
-0.378737 -0.572856 16.4521
-1.51117 -0.77087 19.8249
-1.80984 -0.964215 22.9647
-1.69916 -0.716955 19.2766
-1.81548 -0.701639 20.1558
-1.8169 -0.690285 20.4069
-1.70001 -0.765535 22.9781
-1.6142 -0.674733 20.8894
-1.17392 -0.701026 21.5318
-0.657657 -0.52258 17.2958
-1.57551 -0.571969 20.1445
-1.38354 -0.517955 17.8583
-0.578916 -0.441523 15.9542
-0.776337 -0.483592 17.0481
-0.828617 -0.464531 16.8288
-0.519351 -0.463226 16.1357
-0.51393 -0.463757 15.6015
-0.510161 -0.462138 15.5949
-0.730325 -0.441206 16.0491
-0.725189 -0.44557 16.1113
-3.24931 -2.11191 40.4804
-0.579686 -0.434132 16.0089
-0.30311 -0.910779 16.9814
-0.574774 -0.905063 17.2939
-2.26217 -2.00222 23.7092
-0.69179 -0.894125 17.3729
-0.587189 -0.838399 17.1262
-2.339 -1.75405 22.7651
-0.761424 -0.831879 17.1518
-0.595361 -0.82934 17.1249
-0.713679 -0.811105 17.1018
-1.20184 -0.775069 16.9644
-2.47501 -1.68671 23.3961
-2.01099 -1.45904 21.8124
-0.287703 -0.762028 16.9955
-0.292169 -0.773312 17.1361
-2.18977 -1.211 20.6946
-0.311916 -0.764364 17.1697
-1.98939 -1.40746 22.2671
-2.0265 -1.23314 21.0324
-0.689274 -0.760998 17.3207
-1.51837 -0.893275 18.7006
-1.82589 -1.24423 21.7421
-2.30911 -2.45479 32.1761
-1.91866 -1.20941 21.6868
-0.565106 -0.699537 17.0157
-0.407182 -0.729258 17.2639
-5.328 -3.47934 44.9312
-1.63629 -1.22404 22.4663
-1.45601 -3.50022 46.5993
-0.578349 -0.640749 17.2254
-0.501452 -0.558737 16.1309
-1.47882 -0.67346 17.8669
-0.457345 -1.02901 22.9822
-0.373577 -0.691651 18.1212
-3.4174 -3.8802 77.1862
-2.17068 -1.36198 33.4482
-1.53052 -0.60554 18.5097
-1.66519 -0.791303 23.0735
-1.8307 -0.975914 27.6174
-1.60489 -0.72868 21.8731
-1.377 -0.539156 17.842
-1.41355 -0.544996 18.6293
-0.722419 -0.515626 17.7558
-1.51178 -0.505578 18.0271
-1.08509 -0.479763 17.1494
-0.882352 -0.480455 16.9232
-0.62438 -0.480272 17.168
-0.576344 -0.478177 16.5649
-0.46798 -0.472965 16.9386
-0.511428 -0.462992 16.1319
-0.624948 -0.450647 17.019
-0.542686 -0.454627 16.0518
-0.667627 -0.439782 15.9353
-0.458096 -0.619377 15.7887
-0.680137 -0.438548 16.0226
-1.98219 -2.15447 31.0845
-0.541673 -0.974568 17.3383
-0.291246 -0.896026 17.0654
-1.0796 -0.902715 26.2825
-0.260632 -1.26042 18.8723
-0.55224 -0.908458 17.2805
-0.459692 -1.18113 19.0857
-2.34172 -1.68634 22.373
-0.655649 -0.83547 17.2728
-0.276471 -0.674279 16.3156
-0.948806 -0.916551 17.9114
-0.534455 -0.448653 15.8393
-0.271123 -0.782313 17.1286
-2.05836 -1.65541 23.1399
-0.293999 -0.749049 16.9856
-0.135926 -0.770836 17.1254
-0.87456 -0.734487 17.0036
-0.59432 -0.705964 16.8031
-1.93923 -1.1912 21.3859
-0.246596 -0.708647 17.0938
-1.91706 -1.18658 21.4555
-0.256091 -0.705639 17.1036
-3.53098 -3.5369 47.3752
-2.41744 -2.03881 32.3534
-0.415678 -0.658159 17.1803
-0.670299 -0.443518 16.0403
-0.507276 -1.80902 34.956
-0.3719 -0.627225 17.3405
-1.68642 -0.713181 19.1629
-0.407984 -0.697396 19.1196
-1.80333 -0.71673 20.2681
-1.70329 -0.804406 23.4359
-0.645149 -0.562712 17.5008
-0.546284 -0.550936 17.5647
-0.689137 -0.602613 19.6033
-0.645099 -0.536918 18.1453
-0.615927 -0.501654 17.248
-1.46086 -0.4939 17.6106
-0.603372 -0.497548 17.2607
-0.836017 -0.495085 17.7406
-0.682226 -0.482436 16.9121
-1.34775 -0.469586 17.2919
-1.13112 -0.471438 16.8715
-0.861927 -0.47365 16.9192
-0.782169 -0.474294 17.0085
-0.60354 -0.472192 16.8835
-0.791147 -0.463863 16.8205
-0.877022 -0.458704 16.5825
-0.765757 -0.456906 16.5604
-0.672058 -0.443513 16.04
-0.29342 -0.646289 16.326
-0.368046 -0.568405 16.1809
-1.64958 -3.6537 26.9889
-0.273202 -0.908628 17.107
-0.28443 -0.908979 17.1605
-0.225391 -0.849285 16.8889
-0.481733 -1.79827 33.783
-0.519903 -1.00127 17.8245
-0.894697 -0.81898 17.1314
-2.45806 -1.67569 22.1824
-2.0025 -1.74872 22.8369
-2.0222 -1.76401 23.1185
-0.873533 -0.775221 17.051
-2.31835 -1.55703 22.0507
-2.08214 -1.6678 22.7239
-0.297748 -0.773704 17.0498
-2.12217 -1.61629 22.4982
-0.335482 -0.822671 17.3838
-2.38299 -1.60775 22.852
-0.579946 -1.65812 23.5102
-0.334985 -0.725163 16.8745
-1.95941 -1.46931 22.0891
-0.597426 -0.756186 17.1273
-0.488547 -0.788578 17.3702
-0.737749 -0.782319 17.3747
-2.14147 -1.36552 21.853
-1.9795 -1.38179 22.062
-0.510801 -0.598657 16.1326
-0.495943 -0.592389 16.1107
-0.698598 -0.733424 17.2921
-0.385323 -0.750641 17.4786
-0.734412 -0.722195 17.306
-2.0323 -1.52874 24.4124
-0.300279 -0.679242 16.9339
-1.45728 -0.851086 18.5754
-1.9692 -1.16256 21.5822
-1.42976 -0.813972 18.5415
-1.39391 -0.809534 18.4952
-0.476345 -0.708267 17.5196
-1.68373 -1.50561 27.1028
-1.67055 -1.16369 23.3764
-1.88176 -1.1689 23.8739
-1.60412 -0.742677 18.7691
-0.56046 -0.631739 17.1991
-1.91055 -1.11154 24.8595
-0.784691 -1.91364 36.6807
-0.345396 -0.651825 17.7654
-1.57841 -0.676184 18.8555
-1.56471 -0.638455 18.8305
-1.46686 -0.680465 19.9178
-1.13095 -0.728284 20.9213
-1.23746 -0.782945 22.505
-1.70522 -0.739896 22.6622
-1.48685 -0.640429 20.142
-1.19076 -0.625451 20.9885
-0.685268 -0.512604 17.5811
-0.741588 -0.504493 17.7756
-0.498761 -0.492739 16.3512
-0.794067 -0.490317 17.1822
-0.6028 -0.490869 16.9743
-0.943627 -0.485049 17.1904
-0.860791 -0.477983 16.9715
-0.499867 -0.47736 16.2703
-0.679624 -0.469958 16.8396
-0.785252 -0.464922 16.6135
-0.677138 -0.4415 15.951
-0.694397 -0.434376 16.8335
-0.542627 -0.457067 16.0395
-0.539689 -0.452707 16.0728
-0.687438 -0.443936 16.0529
-0.695575 -0.440839 15.9871
0.196318 -0.66908 8.34753
-0.278597 -0.16334 7.87956
-0.10809 -0.579465 8.73498
-1.07288 -0.620622 9.07021
-0.0769907 -0.447399 8.32769
-0.252105 -0.62823 9.99998
-0.0456834 -0.353985 8.20943
-0.21873 -0.686099 8.76796
-0.39664 -0.55784 8.37836
-0.0170144 -0.472036 9.11538
0.152213 -0.308813 8.20477
-2.02003 -0.589012 11.7722
-0.356355 -0.159837 8.42145
-1.26693 -0.771198 10.5275
0.0854539 -0.274623 8.52057
-0.664876 -0.24394 10.7727
0.0875233 -0.382 8.53611
-2.33036 -0.951859 12.5503
-1.56556 -0.747303 11.4073
-1.02895 -0.630867 10.5412
-0.129858 -0.669417 8.93775
-0.0455528 -0.439234 8.36668
-0.0698977 -0.461221 8.94215
-1.58803 -0.789226 11.3558
-1.53902 -0.684906 11.8666
-1.2969 -0.728519 11.5741
-1.56251 -0.478844 12.4247
-1.78647 -1.12185 20.4068
-0.387188 -0.780616 11.803
-1.51013 -0.970508 12.9463
-0.622369 -0.678317 11.7443
-1.34277 -0.663126 17.1307
-2.29705 -2.17292 34.0893
-1.65909 -0.728498 12.4086
-1.21923 -0.248036 11.263
-0.151644 -0.57335 10.47
-1.26369 -0.793321 11.8429
-0.447314 -0.615254 11.4229
-0.234232 -0.504608 14.3831
-0.272068 -0.582819 10.5198
-0.471608 -0.724366 11.8133
-0.656446 -0.648978 11.794
-1.36186 -0.409036 12.354
-1.56416 -0.701564 12.6023
-1.59365 -0.599157 12.6507
-0.454364 -0.746668 11.8025
-0.227132 -0.79747 12.101
-0.217827 -0.51535 12.2956
-0.279096 -0.723977 11.8068
-1.61711 -0.830454 12.8608
-0.174438 -0.513702 12.3661
-0.529066 -0.612615 11.8355
-0.132313 -0.713418 12.2079
-1.39492 -0.339604 13.1302
-0.261174 -0.808647 11.8423
-1.39066 -0.419865 13.686
-0.386611 -0.774693 11.7903
-0.247879 -0.736269 11.8833
-0.63761 -0.678834 11.7134
-0.0463477 -0.552075 11.4058
-0.568735 -0.718861 11.744
-0.0739217 -0.66115 11.6585
-1.26496 -0.685337 12.942
-0.791472 -0.523326 18.2295
-0.686969 -0.597888 11.8178
-1.23503 -0.678476 12.8765
-1.26335 -0.685375 13.2813
-1.32932 -0.731667 13.56
-2.30524 -1.46082 22.3382
-1.85417 -1.09425 30.5255
-1.61177 -1.42587 36.1545
-1.5378 -1.07085 14.3606
-0.623977 -0.898731 17.2127
-0.909174 -0.854005 17.1223
-0.902543 -0.84376 17.117
-0.668868 -0.867893 17.2609
-0.746096 -0.828092 17.1463
-0.653072 -0.834715 17.2591
-0.869962 -0.797537 17.1092
-0.323461 -0.754654 17.0241
-0.608525 -0.759773 17.1155
-0.514447 -0.80354 17.3509
-2.11669 -1.65881 22.6249
-0.335078 -0.786476 17.3621
-0.575044 -0.802584 17.5174
-0.476801 -0.730333 17.1287
-0.264054 -0.722501 17.0838
-0.562764 -0.709897 17.0794
-2.40993 -1.46067 22.2716
-2.49008 -1.4221 22.1067
-1.60212 -0.88865 18.4892
-1.65407 -0.883038 18.5792
-1.50685 -0.852871 18.5183
-1.92778 -1.20234 21.3643
-1.62814 -0.834181 18.4721
-0.34526 -0.678759 17.1161
-0.328596 -0.678826 17.1397
-1.64783 -1.11313 20.9799
-0.474557 -0.691982 17.4726
-1.77827 -1.09628 23.1927
-1.53973 -0.707657 18.7806
-1.71962 -0.775608 19.7601
-1.58631 -0.686336 18.6596
-1.83707 -0.858665 21.2646
-0.712806 -0.943444 22.3638
-0.342061 -0.578104 16.9865
-0.775767 -0.690174 19.1266
-1.70866 -0.701603 19.7828
-1.58582 -0.699667 20.4667
-0.59676 -0.579362 17.5581
-0.705164 -0.661954 20.2772
-0.455747 -0.546005 17.0328
-0.539332 -0.552976 17.3403
-1.37551 -0.512677 17.7912
-0.589298 -0.512672 17.1758
-1.0365 -0.507983 17.8959
-0.680372 -0.50861 17.5545
-0.654635 -0.501158 17.5695
-0.840129 -0.491713 17.196
-0.578982 -0.486192 16.6441
-0.820788 -0.464737 16.5486
-0.793173 -0.45204 16.5144
-0.748061 -0.44834 16.5622
0.200444 0.345671 27.842
-0.884779 -0.787597 17.0555
-0.556444 -0.463172 16.2285
-0.0295027 -0.99018 17.2732
-0.37858 -0.573686 16.4209
-0.37382 -0.553169 16.4354
-0.559122 -0.465786 16.1943
-0.282333 -0.960084 17.1527
-0.565975 -0.465454 16.3379
0.0990522 -3.98731 57.9646
-2.78116 -3.3163 27.1182
-0.622435 -0.900686 17.2178
-1.39601 -1.0994 18.0731
-0.605181 -0.901954 17.2508
-0.557413 -0.909108 17.2788
-0.683824 -0.419142 17.4713
-0.637401 -0.835863 17.2708
-0.613664 -0.839254 17.2868
-1.37922 -0.503859 17.766
-0.993843 0.073646 27.6885
-1.07966 -0.474648 17.0762
-0.687486 -0.481188 16.8944
-0.727185 -0.480863 16.9089
-2.10537 -1.35433 27.3455
-1.62344 -0.741215 22.8519
-0.663878 -0.615909 18.7656
-1.38729 -1.32933 35.8959
-1.48939 -0.685486 20.4134
-1.57703 -0.616962 18.7778
-0.945973 -0.963366 26.4793
-0.623847 -0.868494 17.2904
-0.506955 -0.864205 17.3165
-0.654323 -0.834513 17.2137
-0.319575 -0.846654 17.2596
-1.55093 -0.648928 19.3562
-0.522511 -0.932005 22.4577
-2.00865 -1.03604 24.241
-0.699952 -0.797247 17.1129
-0.32843 -0.826675 17.2478
-0.883849 -0.781029 17.0695
-0.523574 -0.522123 16.9499
-0.724523 -0.7935 17.2951
-0.696637 -0.763068 17.2601
-0.384703 -0.879799 18.0068
-1.97482 -1.61292 22.8195
-2.11632 -1.43152 21.9124
-0.738241 -0.745126 17.3077
-1.90474 -1.48734 22.6627
-2.1551 -1.2763 21.2673
-1.99398 -1.60543 24.1195
-0.696752 -0.736078 17.4583
-0.345901 -0.679159 17.1234
-0.58405 -0.673444 17.1168
-2.45814 -2.36808 31.9964
-0.97222 -0.463383 17.0406
-1.74903 -0.923182 38.6541
-0.264137 -0.727664 17.0849
-0.252741 -0.605255 17.1371
-0.624821 -0.908915 17.298
-0.603083 -0.836576 17.1196
-0.765259 -0.827441 17.1252
-0.588946 -0.831488 17.1329
-0.880136 -0.804379 17.0462
-0.868494 -0.792773 17.0531
-0.660854 -0.780824 17.1262
-0.700892 -0.764818 17.2805
-1.59772 -0.868596 18.4807
-1.65748 -0.701315 18.9978
-1.84434 -0.958005 23.3752
-0.823098 -0.488263 17.0848
-0.76971 -0.480511 16.889
-0.866866 -0.463297 16.9745
-0.035517 -1.55404 19.7073
-0.784451 -0.480442 16.8824
-0.673947 -0.558757 18.6472
-1.39679 -0.557392 18.2382
-0.332199 -0.879159 17.3596
-0.729047 -0.703432 20.9639
-0.294054 -0.892144 17.6279
-1.63117 -0.784695 22.8944
-2.53963 -1.71031 22.149
-0.714435 -0.79329 17.3327
-2.88392 -1.60279 22.083
-0.582475 -0.839116 17.6753
-0.569836 -0.565714 17.1011
-0.682889 -0.75318 17.2661
-0.208221 0.26771 23.5235
-2.39691 -1.5313 22.085
-1.88596 -1.59355 22.4224
-0.314984 -0.820196 17.7097
-0.509599 -0.748373 17.3849
-2.15007 -1.3573 21.596
-0.725176 -0.724946 17.3109
-0.604642 -0.833407 22.4735
-0.35479 -0.694406 17.13
-1.91288 -1.35088 22.2422
-2.40219 -2.59071 32.592
-0.538368 -1.38984 22.8481
-1.63928 -1.0973 20.8689
-1.88644 -1.10971 21.1829
-1.77619 -0.856953 19.8509
-0.645771 -0.876403 20.1204
-1.82299 -0.802253 19.909
-0.418973 -0.942192 21.6913
-1.94581 -0.8968 24.0423
-2.11412 -1.30243 27.1018
-1.6221 -0.681659 18.695
-1.76983 -0.711492 20.2895
-0.586578 -0.762865 17.1137
-0.324533 -0.593348 17.4022
-0.667301 -0.829389 17.2304
-0.670906 -0.787329 17.11
-0.626093 -0.554137 17.9974
-1.15248 -0.869796 24.6548
-0.6838 -0.483762 16.9138
0.124989 -1.44465 19.5475
-0.328547 -0.832811 17.343
-0.680426 -0.467715 16.8654
-0.351996 -0.819496 17.3548
-0.709986 -0.794963 17.3201
-0.733273 -0.769069 17.3203
-2.08344 -1.86847 23.8966
-0.578941 -0.699192 17.1352
-0.82722 -0.961941 18.7338
-0.814426 -0.484827 17.0383
-1.95599 -1.47078 22.2108
-2.09383 -1.4136 21.9521
-1.94576 -1.37324 22.0596
-0.569899 -1.43307 22.4135
-1.85549 -1.388 22.5881
-1.93627 -1.45197 23.2716
-1.87942 -1.16768 21.2384
-0.678957 -1.21801 21.4022
-0.553129 -0.795248 18.3101
-2.48409 -2.54175 32.6746
-0.559085 -0.796284 18.356
-0.351726 -0.734369 17.9436
-0.655491 -0.997094 21.1358
-1.17167 -2.45244 37.2431
-0.34637 -0.668549 17.8007
-1.82068 -1.05429 23.0444
-0.566183 -0.59264 17.1198
-1.90781 -0.842422 21.5839
-0.772655 -0.46708 16.868
-1.7589 -2.0297 41.973
-1.68506 -0.749756 20.6652
-1.23783 -1.44116 32.4731
-0.739572 -0.473141 16.7914
-1.62688 -0.821855 23.1404
-1.58814 -0.666546 20.631
-0.813104 -0.597174 18.8362
-0.821025 -0.624221 20.4659
-0.614409 -0.538168 17.1918
-0.556477 -0.50185 17.1015
-0.590559 -0.533502 17.2756
-0.644098 -0.549368 18.4351
-0.609181 -0.521481 17.3441
-0.592311 -0.520579 17.1956
-0.822681 -0.510097 17.8379
-0.745685 -0.504815 17.7677
-0.671939 -0.503481 17.6535
-0.365427 -0.738422 17.1983
-0.380021 -0.654136 17.167
-0.317621 -0.613227 17.332
-1.37328 -0.911302 27.4524
-0.728858 -0.785935 17.3648
-0.482853 -0.722137 17.1288
-2.50524 -1.72439 22.2872
-2.07208 -1.66293 22.502
-2.13403 -1.55489 22.2629
-1.94002 -1.4883 22.0652
-2.01802 -1.32348 21.4908
-0.479353 -0.799797 18.0333
-0.569346 -0.64724 17.1095
-0.613015 -1.47054 22.8095
-0.398906 -0.685598 17.3605
-0.500801 -0.772016 18.0231
-0.467953 -0.759555 18.0344
-0.32999 0.0913255 18.9457
-2.35143 -2.29334 33.0156
-1.68443 -1.11167 23.2822
-1.40056 -1.09934 23.5844
-1.24645 -1.23568 25.2148
-1.57771 -0.745128 19.4497
-0.680443 -0.986855 22.3163
-0.231894 -0.655339 17.9097
-4.44911 -5.65169 91.5452
-2.98437 -4.82678 79.1778
-1.88849 -1.17771 26.7924
-3.63325 -3.08245 56.5877
-1.71545 -0.908368 22.8099
-1.94404 -0.723526 20.0873
-2.21517 -1.51322 34.3114
-1.823 -0.739702 20.7625
-0.96467 -1.17164 28.2756
-1.00542 -0.692784 19.7144
-1.50253 -0.67828 20.4602
-1.80627 -0.970507 27.4506
-0.621181 -0.577941 17.7364
-1.01966 -0.700849 21.8074
-1.66895 -0.607331 20.2167
-0.564803 -0.542667 17.103
-1.51196 -0.610574 20.5181
-0.752981 -0.590573 20.0152
-0.580572 -0.535147 17.1988
-0.605518 -0.530829 17.2117
-0.717959 -0.545491 18.7847
-0.8036 -0.52627 17.9238
-1.35702 -0.514529 18.5331
-0.829863 -0.505686 17.7511
-0.706826 -0.495694 17.7694
-0.717312 -0.777089 17.2896
-0.526318 -0.738883 17.1732
-0.726476 -0.756488 17.3148
-0.752678 -0.493294 17.5629
-0.750398 -0.750651 17.317
-0.558997 -0.781278 17.4261
-1.88932 -1.58553 21.9925
-2.32109 -1.61706 22.3934
-2.05419 -1.55005 22.0061
-2.28117 -1.53085 22.2499
-1.96428 -1.66316 22.9576
-2.39415 -1.42504 21.9911
-2.01387 -1.29848 21.3696
-2.15627 -1.25406 21.2361
-0.569365 -0.813584 18.2927
-0.663069 -1.27969 21.4642
-1.47175 -0.833211 18.6415
-1.558 -0.996419 19.9862
-0.700833 -1.15515 21.0164
-0.666307 -0.498522 17.5076
-1.71804 -0.93854 20.4405
-1.84397 -1.10349 23.305
-2.54884 -1.6499 32.7731
-0.376329 -0.68543 18.6664
-3.28855 -2.59885 51.3192
-2.16893 -2.58595 51.9182
-1.79949 -0.761704 21.7971
-0.599206 -0.632051 18.7315
-1.6271 -0.790551 22.8593
-1.69075 -0.73795 22.5603
-0.675478 -0.604249 18.8129
-1.29726 -0.655152 20.9288
-0.979637 -0.573646 19.0669
-1.41575 -0.54564 18.6236
-1.59001 -0.567856 20.0423
-0.971277 -0.548111 18.8096
-0.56221 -0.514069 17.1156
-0.622308 -0.919883 23.4586
-24.7595 -32.6519 538.713
-0.621841 -0.496338 17.3125
-3.49574 -2.98283 27.7986
-2.58157 -1.7253 22.292
-1.92747 -1.55762 22.1268
-0.419795 -0.982686 18.9017
-0.585622 -1.49478 21.8936
-2.34222 -1.24096 21.0572
-1.95035 -1.28371 21.3083
-1.94923 -1.42177 22.1451
-1.95168 -1.4089 22.2092
-0.618755 -1.56119 23.0985
-1.90544 -1.36275 22.2049
-1.5351 -0.827486 18.7867
-1.53201 -0.817118 18.7789
-1.88608 -1.29235 22.2831
-0.52622 -1.15837 21.1162
-0.583671 -0.510268 17.1878
-2.05179 -1.51182 24.3671
-2.34814 -2.54871 32.6473
-0.372552 -0.777305 18.4682
-1.63678 -1.24457 23.5588
-1.83115 -1.15842 23.7793
-0.766357 -0.98326 21.547
-1.8046 -0.940059 23.3836
-0.693606 -0.503345 18.3581
-0.57397 -0.52873 17.109
-1.43314 -0.571324 18.6024
-1.58061 -0.615261 20.3365
-0.815558 -0.52739 17.7973
-1.5589 -0.573211 19.8231
-0.758707 -0.555959 18.9863
-0.65088 -0.773444 17.516
-0.574415 -0.566683 17.1082
-0.621048 -0.496536 17.3221
-0.810436 -0.576618 19.5506
-0.609901 -0.71577 17.3608
-0.501555 -0.854632 18.0395
-2.09775 -1.7584 22.584
-2.58714 -1.5734 21.8418
-2.26455 -1.55863 22.2092
-0.457367 -0.908141 18.6336
-2.15545 -1.45393 22.0517
-2.1376 -1.35602 21.5581
-0.425156 -0.925218 18.8172
-1.80945 -1.58689 23.0255
-0.47534 -0.764763 18.0337
-0.559454 -0.787862 18.2972
-2.32906 -1.53228 23.6424
-0.410214 -0.867946 18.9812
-0.531839 -0.762151 18.278
-0.482916 -1.24277 21.9026
-1.68211 -0.960404 20.2448
-0.570748 -0.832876 19.0109
-1.59028 -0.97038 20.4214
-0.49744 -0.996647 20.7644
-2.40502 -1.96132 31.2978
-1.74686 -0.796178 19.8531
-1.8737 -0.896868 21.2835
-0.661883 -0.94346 21.4938
-1.77653 -1.0782 23.6626
-2.12284 -0.850801 21.4051
-1.89549 -0.831377 21.3078
-1.67207 -0.806359 20.9894
-0.738847 -0.495103 17.5945
-1.38787 -0.833346 21.8481
-1.85956 -0.755025 20.9746
-1.72488 -0.865447 22.731
-0.607829 -0.842776 22.1471
-0.777261 -0.587156 17.8902
-1.65452 -0.629775 20.4927
-0.782488 -0.494194 17.5809
-0.628764 -0.556161 17.9134
-1.13288 -0.609966 22.0229
-1.24998 -0.559474 19.7193
-0.671606 -0.541709 18.2727
-0.833467 -0.523658 17.6796
-0.639532 -0.520942 18.0205
-0.761885 -0.501104 17.641
-0.609085 -0.522444 17.2382
-1.20681 -0.702507 21.6687
-0.357555 -1.53454 20.9949
-0.395645 -1.02958 18.9052
-2.91474 -1.97178 23.5667
-0.749193 -0.50083 17.6467
-2.54255 -1.50551 21.7316
-0.480962 -0.802517 18.0109
-0.530394 -1.74737 22.6693
-0.446672 -1.76707 22.7514
-2.03545 -1.45563 22.0314
-0.48631 -0.764219 18.002
-1.90175 -1.27218 21.2572
-0.550976 -1.47688 22.164
-1.87347 -1.18236 20.8793
-0.555895 -0.793282 18.2875
-0.512214 -0.782899 18.2151
-0.460902 -0.829629 18.4876
-0.556343 -1.34536 21.8932
-0.549626 -0.777303 18.2853
-0.546757 -0.763396 18.255
-0.493715 -0.765728 18.258
-0.71247 -1.29102 22.0693
-0.678023 -1.15356 21.2239
-0.685295 -0.487478 18.3055
-0.737112 -1.11222 21.2044
-1.88913 -0.91597 20.0604
-1.79631 -0.97034 20.5201
-1.69225 -0.943567 20.4596
-0.493349 -0.693404 18.0177
-1.29152 -0.78499 19.1847
-0.781444 -0.950694 21.0627
-1.62815 -0.77226 19.596
-0.495001 -0.837409 20
-0.468946 -0.826727 20.3601
-2.01603 -1.79874 43.9405
-1.86363 -0.704017 19.9232
-1.46898 -1.17605 31.9181
-0.592201 -0.586782 17.8734
-1.7152 -0.64607 20.276
-0.690838 -0.678224 20.7685
-1.71022 -0.600069 19.7666
-1.49037 -0.618028 20.2805
-1.56629 -0.584613 19.9293
-0.848723 -0.559697 18.7972
-0.771985 -0.562597 19.5453
-0.608015 -0.545887 17.773
-0.624487 -0.532732 17.7409
-0.752899 -0.508979 18.2047
-0.369824 -0.746312 18.041
-2.31788 -1.72358 22.2329
-0.506646 -0.806657 17.953
-0.39046 -1.06441 19.0986
-2.59883 -1.55331 21.9616
-1.96779 -1.68763 22.4597
-0.432485 -2.06916 24.2101
-2.27878 -1.54805 22.1254
-2.30773 -1.58547 22.3708
-1.98036 -1.63221 22.5314
-0.592526 -1.71059 22.6785
-0.514109 -0.778887 18.0244
-0.580003 -0.886069 18.6435
-0.486116 -0.770726 18.0136
-2.06076 -1.83188 24.0513
-1.94689 -1.34251 21.4663
-1.96956 -1.43873 22.048
-1.96804 -1.46943 22.215
-0.6113 -0.934071 18.9734
-1.92776 -1.2354 21.2776
-0.618622 -0.87057 18.8055
-0.567666 -1.31715 21.9706
-0.563517 -1.26598 21.7639
-1.85538 -0.931748 20.0475
-0.697537 -1.15022 21.2615
-1.79596 -1.23423 22.2965
-0.49065 -0.705854 18.0009
-0.672428 -1.15338 21.7906
-0.640416 -0.845977 19.2997
-0.765528 -1.07818 21.9823
-0.629237 -0.83114 19.2155
-1.7896 -0.906232 20.4925
-0.628455 -0.806042 19.2089
-0.743712 -1.03318 21.4572
-1.70059 -1.10106 22.941
-1.90318 -1.06976 22.8387
-0.467639 -0.880637 20.3262
-0.458055 -0.86146 20.2682
-0.473078 -0.713875 18.6573
-2.414 -1.99967 34.069
-1.61918 -0.817627 20.5959
-1.4844 -1.09551 23.7934
-6.9895 -7.0952 108.116
-1.53059 -1.40808 28.9477
-1.83499 -1.05983 24.9135
-1.79931 -0.699362 19.8848
-0.338119 -0.706689 19.0645
-1.81616 -0.73008 20.5646
-1.74797 -0.803961 21.662
-1.79691 -0.702093 20.3404
-1.88269 -0.98174 25.9454
-0.816018 -0.478925 17.7617
-0.593235 -0.620613 18.6926
-1.70383 -0.729445 22.7088
-1.48249 -0.628669 20.3086
-0.937599 -0.602215 19.7387
-1.0752 -0.777203 39.0854
-0.769474 -0.553689 18.8506
-0.605512 -0.533327 17.7788
-0.581126 -0.532542 17.7713
-0.642888 -0.504904 17.9573
-0.282821 -0.799478 18.2446
-2.11135 -1.80763 22.6951
-1.95655 -1.71201 22.6641
-0.600697 -1.72358 22.5412
-2.31278 -1.60445 22.3762
-2.57962 -1.53371 22.1845
-0.550334 -0.887133 18.6204
-2.12227 -1.88013 23.9596
-1.0949 -1.12556 19.9595
-0.624529 -1.46581 22.5177
-0.547532 -1.35401 21.9481
-1.89753 -1.18167 21.2362
-1.95736 -1.47573 23.1806
-0.495459 -1.38079 22.2377
-0.489053 -1.2504 21.4051
-1.99864 -1.54309 24.1878
-0.736425 -1.17127 21.2997
-2.03824 -1.49293 24.2662
-1.56092 -0.952145 20.3808
-0.415256 -0.75564 18.5762
-1.68898 -1.21988 22.9891
-0.525538 -0.83541 19.4146
-1.91448 -1.33275 26.2867
-0.481537 -0.810062 19.8502
-2.16416 -1.14926 26.823
-1.8429 -0.90709 23.4183
-1.02076 -1.29736 29.1703
-0.621568 -0.589925 17.8257
-0.600885 -0.621857 18.7349
-1.5044 -0.648498 20.482
-1.16411 -0.79613 24.0285
-1.57938 -0.619403 20.8313
-0.617538 -0.562658 17.7277
-0.634886 -0.546117 17.8146
-0.378218 -0.690849 18.1849
-0.488437 -0.661274 18.0033
-0.430578 -1.14312 19.4178
-2.23378 -1.73424 22.5933
-0.465714 -1.13339 21.9639
-2.23407 -1.63961 22.4142
-2.05375 -1.54121 21.976
-2.39295 -1.5705 22.214
-2.30487 -1.64366 22.71
-2.14993 -1.57982 22.374
-0.459127 -0.790027 18.264
-1.98421 -1.65419 22.8249
-0.456614 -0.777349 18.2122
-1.98956 -1.70019 23.1159
-2.09756 -1.2563 21.1946
-2.18482 -1.8459 25.2153
-0.558224 -1.35344 21.9325
-1.91835 -1.26575 21.8442
-0.678484 -1.19622 21.2111
-1.90974 -1.1481 21.2117
-2.01231 -1.60849 24.1876
-0.732143 -1.26113 21.8804
0.0367614 -4.17528 41.5169
-2.05247 -1.13116 21.5393
-1.91863 -1.46714 23.9824
-1.66317 -0.953085 20.3809
-0.568576 -0.830307 19.2952
-1.52626 -1.56648 25.4605
-2.35555 -1.54826 25.9626
-0.848602 -0.547178 18.5704
-2.15679 -0.959839 21.1018
-1.72597 -1.15623 22.8951
-2.42775 -2.29901 33.4094
-1.62283 -0.965928 21.3846
-2.21529 -2.11454 32.5364
-0.766212 -0.975518 21.212
-0.990236 -1.92285 30.591
-2.52602 -2.13825 33.4981
-0.72113 -1.04331 22.5945
-1.61507 -0.835168 20.6925
-1.72869 -0.989328 22.8785
-2.25959 -1.23442 27.635
-4.8936 -5.96215 96.3998
-0.414396 -0.820756 21.107
-1.70938 -0.898097 23.5093
-1.79015 -0.871665 23.7957
-1.86924 -1.00131 26.6215
