# .PCD v.6 - Point Cloud Data file format
FIELDS x y z
SIZE 4 4 4
TYPE F F F
COUNT 1 1 1
WIDTH 1769
HEIGHT 1
#VIEWPOINT 0 0 0 1 0 0 0
POINTS 1769
DATA ascii
-1.32587 -0.607742 16.5192
-0.755638 -0.310478 19.8303
-1.36308 -0.710487 18.1692
-2.10908 -1.74978 30.2004
-1.37149 -0.560689 16.5456
-1.73892 -1.03952 27.4958
-1.1962 -0.517323 16.2233
-0.521309 -0.485139 14.8204
-0.514648 -0.485043 14.9307
-1.29173 -0.484709 16.1299
-1.19937 -0.485275 16.0405
-0.522518 -0.473502 14.7711
-0.639676 -0.473806 15.3447
-0.828997 -0.445042 15.9296
-0.480762 -0.456418 14.797
-0.512634 -0.449059 14.7557
-1.64429 -1.40657 17.9193
-0.407529 -0.661668 14.9058
-1.55094 -1.35042 17.906
-0.35494 -1.41438 18.058
-0.409025 -0.658295 14.9059
-0.344089 -0.829043 15.7047
-1.61863 -1.18524 17.4527
-0.318102 -0.668574 15.0682
-1.4906 -0.938877 16.7786
-1.51502 -1.03076 17.5445
-2.32692 -1.76702 23.2766
-0.607278 -0.836824 16.6604
-1.36298 -0.934477 17.8663
-1.36797 -1.45805 22.7069
-0.388028 -0.732794 16.4871
-0.401148 -0.7767 17.1044
-1.35987 -0.940284 19.1961
-2.02438 -1.76422 27.8172
-1.15375 -1.08171 20.6024
-1.37037 -0.928359 19.4116
-1.39558 -0.64705 16.6799
-2.01366 -1.39934 26.3913
-1.50235 -0.61986 16.7035
-1.47864 -0.655243 17.2112
-0.151338 -0.741876 18.0449
-1.43032 -0.634492 16.9793
-0.719905 -0.996544 22.1786
-0.392468 -0.642662 17.0277
-0.371811 -0.605989 16.5823
-1.60896 -0.774179 20.5145
-0.601265 -0.607667 17.0206
-1.26975 -0.521867 16.2085
-0.461008 -0.554594 16.7772
-0.520049 -0.478394 14.7761
-0.91069 -0.481652 15.8947
-0.652174 -0.467407 15.6185
-0.654723 -0.458269 15.2589
-0.413659 -0.544337 14.883
-0.337734 -0.841377 15.5851
-0.334088 -0.827818 15.5761
-0.277345 -1.15674 16.9318
-0.339596 -1.396 17.9475
-1.56491 -1.34853 17.9567
-1.65911 -1.25069 17.5891
-1.63501 -1.16597 17.3968
-0.46452 -1.25759 17.6883
-1.55585 -1.2583 17.9294
-0.599087 -0.884005 16.7421
-0.50088 -0.923784 17.0041
-1.54825 -1.02598 17.951
-0.40344 -0.589997 15.0118
-1.64538 -1.20515 19.3183
-1.57737 -0.995482 17.9556
-1.5822 -1.04896 18.3773
-1.54772 -1.05852 18.4381
-1.28801 -0.804993 16.762
-2.03303 -2.1206 26.7034
-0.587556 -0.898159 17.4205
-1.3578 -1.01528 18.4726
-0.333295 -0.844633 17.1634
-0.523462 -0.840588 17.2613
-0.355846 -0.891205 17.7036
-1.45761 -0.782982 17.0945
-2.09598 -1.88537 26.6699
-2.86792 -3.04841 36.7897
-1.28949 -0.988937 26.7417
-0.367677 -0.683062 16.0746
-1.51667 -0.927991 18.5792
-0.401981 -0.761403 16.8598
-1.30831 -0.891083 19.0033
-1.3408 -0.703413 17.238
-0.750854 -0.802761 18.5996
-0.283212 -0.660897 16.8572
-0.76523 -0.871441 20.6786
-1.30888 -0.586165 16.4962
-1.48043 -0.803059 20.2166
-0.886384 -0.978428 22.972
-1.48197 -0.776856 20.663
-0.343112 -0.566061 16.2433
-1.19409 -0.54088 16.1599
-0.442412 -0.605842 17.2655
-0.583318 -0.56282 16.7119
-1.25338 -0.590282 17.9664
-1.26549 -0.524301 16.2938
-1.46206 -0.554255 17.2708
-1.18841 -0.51222 16.0058
-0.949645 -0.564957 17.4712
-0.521951 -0.543557 16.552
-0.489642 -0.496982 15.7982
-0.556367 -0.479243 15.4568
-0.646084 -0.470131 15.521
-0.49742 -0.468973 14.8155
-0.406525 -0.637283 14.9908
-0.336074 -0.786086 15.5296
-0.447041 -1.39162 17.938
-0.476845 -1.36309 17.8858
-0.435939 -1.2763 17.6162
-0.391136 -1.27758 17.6178
-1.92622 -1.0618 28.2466
-1.67497 -1.56361 19.0603
-1.56069 -1.19225 17.5256
-1.55238 -1.13114 17.3408
-0.497285 -0.66776 15.2004
-1.5413 -1.10768 17.4656
-1.51714 -1.23941 18.1339
-0.763231 -0.724033 18.5511
-0.611903 -0.878808 16.7018
-1.35731 -0.850476 16.6774
-0.46454 -0.894265 16.9324
-0.430729 -0.904785 17.2157
-1.51229 -0.948315 17.7433
-0.380202 -0.774802 16.4523
-1.99914 -2.19206 26.9553
-1.62702 -1.12747 19.2801
-0.608634 -0.859055 17.3018
-1.37084 -0.747956 16.6708
-2.07791 -1.91763 27.0567
-1.43928 -1.01381 20.3095
-2.59467 -1.89811 31.9598
-0.392927 -0.655788 16.7372
-1.31642 -0.863932 19.9014
-4.71234 -5.52834 84.849
-1.50506 -0.948892 21.5212
-0.412327 -0.653382 17.1795
-4.2778 -2.1469 43.136
-1.66965 -1.06411 24.4474
-1.45798 -0.791538 20.0735
-0.394799 -0.630842 16.9888
-0.3818 -0.584964 16.3419
-1.32556 -0.598446 17.012
-0.415937 -0.630547 17.5567
-1.52969 -0.626766 18.0628
-0.684666 -0.790752 21.5942
-1.28643 -0.579716 17.2024
-1.2789 -0.542995 17.1501
-1.17069 -0.503709 15.9988
-0.550145 -0.51461 16.2941
-1.14912 -0.489568 16.4418
-0.732558 -0.501712 16.778
-0.665497 -0.48933 15.7759
-0.635853 -0.491671 17.2153
-0.522336 -0.468087 14.9054
-0.83004 -1.05999 21.1302
-0.519873 -0.449604 14.8071
-1.96759 -1.68583 18.7651
-1.64932 -1.42807 17.9365
-1.72862 -1.28875 17.6543
-1.66414 -1.33881 17.9011
-0.427204 -1.30057 17.7689
-1.55915 -1.30623 17.968
-1.72138 -1.60972 19.2571
-1.60814 -1.34627 18.2398
-1.53191 -1.17244 17.5674
-1.28206 -0.843059 16.4611
-1.27155 -0.829566 16.4794
-0.350376 -0.869407 16.6373
-0.546545 -0.891458 17.033
-1.37708 -0.870653 17.101
-0.360877 -0.852521 16.8609
-1.45785 -0.946602 17.6563
-0.514835 -0.888405 17.1918
-1.65454 -1.15537 19.2096
-1.6468 -1.15947 19.3061
-0.626238 -0.810682 16.8121
-0.543963 -0.845927 17.0946
-1.28455 -0.900142 17.7362
-0.50849 -0.790925 16.8344
-0.385959 -0.745054 16.4615
-1.35632 -0.776683 16.9631
-1.89361 -1.72398 25.7041
-0.726516 -1.37694 23.0656
-0.986873 -2.26631 32.718
-0.656924 -0.835815 19.1764
-1.86104 -1.88717 34.4412
-0.405689 -0.682013 17.238
-0.274152 -0.62199 16.9501
-1.51549 -0.63322 17.9371
-1.91087 -0.829129 22.4038
-1.77896 -0.786332 21.7645
-0.626613 -0.563727 16.8073
-1.25327 -0.587994 17.9583
-1.25587 -0.576374 17.8263
-0.559879 -0.551246 16.691
-0.739697 -0.542355 17.7781
-0.865963 -0.493847 16.2527
-0.771796 -0.492907 16.0453
-0.611461 -0.475582 16.7109
-1.3052 -0.725889 16.4959
-0.393346 -1.39389 17.9019
-0.476448 -1.39616 17.9447
-0.372622 -1.22838 17.6432
-0.341426 -1.07433 17.0121
-1.537 -1.16197 17.5668
-0.341079 -0.942922 16.5055
-1.68733 -1.48434 19.1433
-1.57172 -1.12399 17.569
-0.356401 -1.19431 17.7504
-0.438019 -1.09982 17.5258
-0.563302 -0.884802 16.8666
-1.34175 -1.0198 18.1597
-0.608231 -0.826464 16.776
-1.31996 -0.980146 18.0882
-0.604152 -0.797016 16.6998
-0.353314 -0.766203 16.5294
-2.62432 -3.30497 69.2045
-0.395489 -0.866927 17.3479
-1.34881 -0.906032 17.9719
-0.588359 -0.769543 16.8355
-1.38609 -0.902472 18.5269
-0.406458 -0.760755 17.0173
-1.87895 -1.78366 27.3808
-1.05134 -1.03777 20.5892
-1.35493 -0.744859 17.6715
-0.515905 -0.700843 17.1286
-0.392914 -0.721452 17.3403
-1.95056 -1.11168 22.6882
-0.734747 -0.906262 20.0714
-0.703869 -0.936463 21.1583
-1.98897 -1.79268 35.2749
-0.939201 -0.78314 19.4546
-1.65997 -0.891054 21.6867
-0.648689 -0.818152 20.7063
-1.57506 -0.998739 24.8122
-0.353797 -0.559144 16.4946
-0.725082 -0.615636 19.4058
-0.744088 -0.485629 15.8318
-0.306748 -0.657565 12.0063
-0.244538 -0.720814 12.2624
-0.313357 -0.664827 12.0766
-0.268062 -0.538987 11.676
-0.997777 -0.632451 12.3779
-0.239409 -0.432991 11.6453
-0.245826 -0.336138 11.649
-0.365134 -0.706009 12.3068
-0.288882 -0.518512 11.6735
-0.250235 -0.490483 11.7092
-0.268039 -0.458032 11.6759
-0.194169 -0.428173 11.8343
-0.394557 -0.705629 12.3292
-0.391677 -0.648891 12.3876
-0.273015 -0.65573 12.501
-0.180653 -0.496006 12.1055
-0.477497 -0.577701 13.0404
-0.267871 -0.439894 11.9645
-0.249882 -0.422051 12.1781
-0.215717 -0.43899 12.8268
-0.38139 -0.63119 16.4011
-0.27672 -0.723972 12.6139
-0.504259 -0.682021 12.4418
-0.473603 -0.655177 12.3894
-0.336784 -0.56126 12.1198
-1.28775 -0.56027 13.5474
-1.33392 -0.855647 18.377
-1.15955 -0.5842 13.452
-1.29835 -0.502985 14.9587
-1.31682 -0.455871 14.5334
-0.431614 -0.345662 12.568
-1.18022 -0.596759 13.473
-0.218567 -0.552604 12.8055
-0.523638 -0.615188 12.3268
-0.366384 -0.510505 12.0523
-0.411122 -0.530859 12.4119
-1.17068 -0.568815 13.4567
-0.361358 -0.378406 12.0046
-1.1448 -0.641229 13.4898
-0.555413 -0.546544 12.3915
-0.40191 -0.548189 14.5446
-0.569143 -0.584566 12.3772
-0.361492 -0.358005 12.2024
-0.572042 -0.550378 12.4199
-0.48422 -0.342145 12.5945
-0.41336 -0.346567 12.1248
-0.451088 -0.345698 12.5872
-0.557884 -0.531775 16.1611
-1.21201 -0.505701 14.6418
-0.568366 -0.596935 13.6889
-1.16801 -0.697363 14.6358
-0.480388 -0.420538 13.5552
-1.92219 -1.40327 17.6832
-1.68559 -1.26446 17.6784
-1.42818 -0.845148 16.5522
-1.98674 -2.06157 26.295
-2.01888 -2.06587 26.6213
-1.79546 -1.73311 27.6317
-1.79658 -1.23188 24.6531
-0.432782 -1.40042 17.9574
-0.391472 -1.40386 17.9643
-1.27851 -0.58111 18.2077
-1.96909 -1.21081 32.5556
-1.54814 -1.25922 17.983
-0.375833 -0.926975 16.6962
-0.590341 -0.942956 16.8574
-0.56544 -0.903252 16.8147
-0.458453 -1.06325 17.7885
-0.354766 -0.878649 16.8918
-1.57864 -1.16121 18.6626
-0.467024 -0.830979 16.7368
-1.8134 -0.870922 24.0237
-0.550365 -0.895528 17.1309
-1.5877 -1.16395 18.8505
-0.512054 -0.854328 16.9404
-0.307929 -0.950678 17.5751
-0.567264 -0.869402 17.2217
-1.47214 -0.911237 17.7633
-0.679846 -0.522026 16.5146
-1.45907 -0.955854 18.1321
-0.379374 -0.79767 16.8883
-0.388056 -0.848591 17.3303
-1.26114 -0.879393 17.9501
-1.33288 -1.00607 18.9224
-0.58905 -1.97044 26.1975
-0.360758 -0.600482 16.6741
-1.54977 -0.942168 18.6623
-0.377426 -0.66637 16.707
-1.59885 -1.03183 21.3468
-0.354159 -0.639184 16.502
-1.29178 -0.966042 20.9055
-1.81773 -0.981641 21.6271
-0.548548 -0.916665 20.7515
-0.658716 -0.478726 15.9275
-1.49855 -0.695433 18.9624
-0.300799 -1.135 17.2532
-0.366314 -0.889699 16.4843
-1.53412 -1.07472 17.7395
-1.5208 -1.05758 17.7304
-0.524162 -0.506538 16.9534
-1.54328 -1.33397 18.0938
-0.576163 -0.975353 16.9008
-0.280864 -0.864798 16.5298
-0.781356 -0.601925 18.2339
-1.5648 -1.10209 17.9325
-0.314498 -0.964296 17.3893
-1.64405 -1.27677 19.2601
-0.363282 -0.737712 16.5152
-1.52172 -1.01673 18.4961
-1.37818 -0.944648 18.0581
-0.316534 -0.870141 17.3887
-0.308951 -0.877945 17.4653
-1.3727 -0.981273 18.368
-1.72341 -1.16127 19.7154
-1.36984 -1.00133 18.7785
-0.522519 -0.885377 17.7889
-0.350186 -0.735126 16.7004
-1.45815 -0.934634 18.8493
-0.347452 -0.677749 16.5017
-1.77531 -0.863495 23.3941
-1.33037 -0.900387 18.8409
-1.99289 -1.60398 25.8789
-0.819187 -1.59927 25.5107
-2.06589 -1.60826 26.8363
-0.402903 -0.712601 17.3041
-1.7089 -1.04248 21.4597
-1.42608 -0.806705 18.8158
-1.3426 -0.579872 17.8442
-1.4668 -0.886607 20.2087
-1.48121 -0.942528 21.5738
-1.38261 -0.690636 18.4543
-1.50956 -0.885261 21.7112
-1.42713 -0.753389 22.0082
-0.599876 -0.947548 16.8355
-0.635252 -0.522435 16.4511
-0.770238 -0.54838 16.8867
-1.24906 -0.572184 17.7406
-1.76206 -1.61652 19.2984
-0.309278 -1.0082 17.187
-0.309507 -1.03903 17.3778
-0.307892 -0.956839 17.318
-0.370816 -0.74621 16.5114
-0.386067 -0.795331 16.8878
-1.30514 -0.979729 18.1002
-0.315977 -0.875235 17.3683
-0.414302 -0.853345 17.3965
-0.544643 -0.848007 17.4601
-1.45442 -0.914446 18.0559
-1.35025 -0.906299 17.9873
-1.55839 -0.922728 18.2761
-1.56598 -1.74112 23.9777
-0.365971 -0.812011 17.3562
-0.632837 -0.904797 18.0792
-1.31092 -0.931547 18.422
-0.392142 -0.799083 17.3829
-0.345673 -0.673835 16.506
-1.33254 -0.898114 18.8337
-1.38514 -0.828048 18.5056
-0.381157 -0.667758 16.7634
-1.33244 -0.85617 19.1314
-2.32616 -1.81165 30.2568
-0.51947 -0.726695 17.697
-0.367834 -0.651924 16.8004
-1.37657 -2.66508 43.4268
-0.558907 -0.847606 19.816
-4.47189 -6.75028 104.481
-0.600333 -0.76961 18.8553
-1.39501 -1.83922 35.3509
-1.33522 -0.657958 18.2411
-1.47242 -0.783663 21.3911
-1.01853 -0.697499 19.4966
-1.44211 -0.750762 21.1729
-0.66026 -0.55021 17.0443
-0.366242 -0.567736 16.4946
-1.49568 -0.58216 17.936
-0.370973 -0.832003 16.5059
-0.40386 -0.927238 16.865
-0.363004 -0.726664 16.5159
-0.342155 -0.672281 16.5046
-0.341526 -0.670601 16.5064
-0.367994 -0.582148 16.4955
-1.00659 -0.504534 18.2539
-1.72864 -1.60702 19.1988
-1.61251 -1.52963 18.9345
-0.466535 -0.908669 16.8519
-0.353725 -0.955091 17.1273
-0.297388 -0.984348 17.3729
-0.609937 -0.82973 16.8121
-0.603783 -0.836383 16.8395
-0.360611 -0.843671 16.8612
-0.616741 -0.807168 16.7593
-0.56306 -0.870659 17.1145
-0.445715 -1.08373 18.0839
-1.55081 -1.09397 18.2556
-0.307554 -0.923938 17.3536
-0.797466 -0.952504 22.6717
-0.413397 -0.959736 17.7607
-0.310805 -0.88296 17.3522
-0.297145 -0.873286 17.4198
-0.445477 -0.944843 17.9123
-1.36314 -0.929373 18.0393
-0.593296 -0.932034 18.1268
-0.375808 -0.793863 17.214
-1.55354 -0.916129 18.245
-0.625753 -0.916388 18.2419
-0.646885 -0.819758 17.6005
-1.4722 -0.994583 18.9934
-1.99 -2.12286 27.1542
-1.39245 -0.942527 18.6548
-0.194354 -0.768273 17.2775
-0.413931 -1.40249 22.168
-1.29594 -0.918337 18.8034
-2.06658 -1.92273 27.0809
-0.756093 -1.58192 24.7275
-1.27998 -0.8913 18.8547
-1.41575 -0.881652 19.1121
-1.31612 -0.874131 19.1649
-1.40373 -0.850805 19.0901
-0.457291 -0.782388 18.1869
-0.451164 -0.739271 18.2548
-1.6266 -1.0595 22.9394
-1.55238 -0.704761 18.2722
-0.598663 -0.615524 16.8715
-0.377671 -0.602867 16.6851
-2.5896 -2.65824 53.0892
-1.85042 -1.33256 30.3657
-0.456412 -0.672357 18.2413
-0.56364 -0.701421 18.9778
-0.626642 -0.534461 16.7476
-1.50854 -0.774635 21.0124
-1.44906 -0.695737 19.8825
-0.621033 -0.661948 19.0687
-0.635328 -0.567231 16.891
-0.381628 -0.561735 16.5287
-0.61588 -0.562557 16.7993
-1.25445 -0.568008 17.8167
-0.583793 -0.553288 16.6809
-0.422113 -0.887713 16.8602
-1.52897 -1.27208 18.0797
-0.714968 -0.545557 17.1464
-0.602856 -0.85263 16.8399
-0.434494 -1.07117 17.6466
-1.57031 -1.28155 18.6687
-0.605716 -0.83102 16.8223
-0.300074 -0.924512 17.2012
-0.557056 -0.870491 17.0928
-0.609276 -0.838614 17.0343
-0.587819 -0.777616 16.8664
-1.43713 -0.949209 18.0714
-1.55297 -0.936526 18.2226
-1.35061 -0.941351 18.2209
-0.449075 -0.873505 17.722
-1.39757 -0.984265 18.6374
-0.592175 -0.943536 18.6391
-0.679809 -1.72168 24.7987
-1.40247 -0.998847 19.4837
-1.21433 -0.934208 19.2224
-1.36461 -0.818889 18.453
-0.829313 -1.40765 24.6894
-0.379805 -0.644692 16.7717
-0.669686 -0.571015 17.6803
-3.18768 -2.70796 44.1125
-0.563644 -1.02546 24.3491
-1.35393 -0.663705 18.3239
-1.38033 -0.837486 21.5578
-0.408785 -0.627717 17.2346
-1.51038 -0.755464 21.694
-1.57388 -0.691962 20.6432
-0.462792 -0.574362 16.7836
-0.372667 -0.57098 16.6661
-0.628528 -0.631622 20.096
-1.2974 -0.563534 17.8505
-0.41783 -0.990872 17.2558
-0.621001 -0.798107 16.7313
-0.371302 -0.679571 16.6784
-0.416973 -1.09735 17.6126
-0.641431 -0.534367 16.7418
-1.54872 -1.14382 18.2474
-0.328319 -0.941177 17.3434
-0.52809 -0.857043 17.1003
-0.38931 -0.793573 16.8544
-0.310549 -0.866058 17.2064
-0.330238 -0.926337 17.515
-0.339889 -0.880986 17.4157
-0.601806 -0.90582 17.6242
-1.31703 -1.01506 18.345
-1.26536 -0.881099 17.7599
-1.48581 -1.02575 18.8169
-1.35615 -0.882158 18.0396
-0.626807 -0.943452 18.331
-0.628011 -0.879956 18.0131
-0.503994 -0.863809 17.8877
-1.32007 -0.925315 18.7381
-4.08287 -5.08004 50.2584
-0.678387 -1.71404 24.6717
-1.39644 -0.807431 17.9693
-1.60302 -0.90921 19.38
-0.539861 -0.849494 18.9123
-0.776614 -1.09991 21.8056
-0.470966 -0.640269 16.9626
-1.43833 -0.85795 20.1105
-1.70812 -1.02693 24.8169
-0.261849 -0.261459 18.4777
-0.499209 -0.847837 21.5906
-1.62603 -0.77939 21.3815
-1.52039 -0.63101 18.194
-2.08395 -0.851809 23.8986
-1.28474 -0.620542 18.1799
-1.33246 -0.567615 17.7699
-0.583201 -0.560105 16.6764
-0.630619 -0.553176 16.8335
-0.454869 -0.890807 17.3521
-0.654959 -0.532945 16.8037
-0.863674 -0.525469 17.4105
-0.371864 -0.870084 17.6433
-1.35367 -0.927891 18.4918
-0.616574 -1.28082 21.1117
-0.457584 -0.829907 17.9694
-1.82754 -1.67091 25.1101
-0.410836 -0.730529 17.3818
-0.656211 -1.56467 24.5266
-2.30611 -1.71925 27.7099
-2.39112 -1.73024 28.3338
-0.922966 -0.936117 19.9251
-1.34089 -0.83126 18.9814
-0.559437 -0.811142 18.6374
-1.32708 -0.835241 19.0895
-1.99035 -1.38388 25.2993
-1.53713 -0.98328 21.4454
-1.56524 -1.09881 23.6639
-2.16411 -1.68626 31.8741
-1.47488 -0.900643 22.1486
-0.759386 -0.944531 22.7033
-1.83517 -0.782546 21.9062
-0.747281 -0.629458 18.6593
-0.624274 -0.595427 18.0398
-0.54889 -0.566885 16.6674
-0.637431 -0.54651 16.9565
-0.497299 -0.659633 16.8107
-0.491433 -0.588985 16.8127
-1.26643 -0.589903 18.0708
-0.694906 -0.486615 19.7222
-0.75427 -0.652453 20.1238
-0.616159 -0.859425 17.5767
-0.410854 -0.789026 17.3633
-0.598307 -0.891171 18.0296
-0.531956 -0.89481 18.0437
-0.602228 -0.566641 16.6982
-2.06037 -2.25498 27.3439
-0.464237 -0.924505 18.4842
-1.86015 -1.9062 25.4105
-1.33926 -0.94262 18.9641
-0.47924 -0.915983 18.6448
-0.561335 -0.8909 18.5096
-1.40572 -0.868656 18.5836
-1.65538 -0.659923 19.8644
-1.19556 -0.918639 19.0888
-0.683816 -0.611944 19.1553
-0.563343 -0.844484 18.547
-0.799207 -1.55114 24.971
-1.63064 -1.14811 22.0555
-1.56294 -1.02921 21.0719
-1.36402 -0.820817 19.0125
-0.44918 -0.693357 17.6651
-0.421419 -0.678977 17.6426
-2.39383 -1.27487 27.694
-1.57382 -0.976281 22.8104
-0.709182 -0.856244 22.2641
-1.16399 -0.866452 22.9552
-0.774478 -0.899 23.8431
-0.469125 -0.668937 18.5958
-1.41594 -0.647616 19.1303
-1.29374 -0.890076 17.8687
-1.23343 -1.61465 19.8937
-0.801535 -0.499243 17.5019
-0.414269 -0.858245 17.3463
-1.67396 -1.22687 19.0701
-0.412291 -0.823936 17.3611
-0.611429 -0.87202 17.6249
-0.615875 -0.923363 18.0973
-0.542625 -0.916806 18.0547
-0.503573 -0.919839 18.0869
-0.512919 -0.89726 18.0272
-1.36954 -0.966982 18.5633
-0.623723 -0.891038 18.0689
-1.3209 -0.942192 18.5537
-0.616475 -0.547355 17.786
-0.521148 -0.706709 17.0852
-1.23671 -0.913711 18.5452
-0.539185 -0.965659 18.8964
-1.27731 -0.923811 18.7876
-0.64811 -1.76074 24.5077
-1.42139 -0.88705 18.772
-0.606245 -0.553374 16.7637
-1.84436 -1.97885 27.4741
-1.28797 -0.880049 18.8634
-1.42691 -0.862975 19.1368
-0.774315 -1.48947 25.0254
-1.40744 -0.839546 19.2004
-0.387505 -0.675815 17.3451
-1.43123 -0.773217 19.1404
-1.4243 -0.868225 20.495
-0.400072 -0.655932 17.3636
-5.44972 -5.52248 86.0172
-1.5291 -0.71525 18.8294
-1.45048 -0.921967 22.4173
-1.48946 -0.822307 21.4919
-1.55498 -0.88388 22.9677
-0.811158 -0.880764 22.8752
-1.57479 -0.694095 20.3666
-1.85685 -1.74002 40.2331
-1.26456 -0.603261 17.9397
-1.07269 -0.582791 18.2392
-0.814924 -0.574772 18.1267
-0.676359 -0.544852 18.863
-0.412386 -0.719945 17.3889
-0.545083 -0.912513 17.647
-0.580623 -0.897423 17.6134
-1.62483 -1.25201 19.2063
-0.54253 -0.893547 17.6241
-0.57427 -0.890728 17.6492
-0.578345 -0.890898 17.6843
-0.57018 -0.868825 17.658
-1.33583 -1.00484 18.3951
-0.498559 -0.922338 18.0408
-0.63126 -0.9361 18.1478
-0.5806 -0.903098 18.0272
-0.558501 -0.902719 18.0574
-0.599795 -0.67012 16.8661
-1.40436 -1.02414 18.9476
-0.358431 -0.938662 18.2944
-0.576446 -1.00821 18.8832
-0.504264 -0.82112 17.7746
-0.537128 -0.7859 17.6048
-1.40757 -0.937804 18.715
-0.618813 -0.904272 18.4064
-1.43446 -0.936983 18.8391
-0.411497 -0.735572 17.3523
-1.96663 -2.15959 27.0427
-1.43213 -0.918481 18.8172
-0.42114 -0.819147 17.9821
-1.19531 -0.921945 19.0872
-1.56524 -1.71918 25.1305
-0.690616 -0.567786 17.854
-0.58804 -1.58241 52.9982
-0.496737 -0.872258 18.853
-1.33134 -0.864561 19.1645
-1.41327 -0.81793 18.8147
-1.5522 -1.28949 23.3005
-0.618248 -0.858531 19.1056
-1.51282 -0.790648 18.7758
-0.653174 -0.857346 19.2189
-3.19192 -1.4026 26.8522
-1.51703 -1.0219 21.8421
-0.899527 -1.40696 27.6492
-1.47125 -0.824492 20.6677
-1.51811 -0.850846 21.4237
-0.960778 -1.15421 26.8842
-0.438847 -0.669561 18.0025
-1.49036 -0.808077 21.3805
-1.5228 -0.677228 18.9868
-1.58169 -0.965271 25.9722
-1.41 -0.780144 22.1624
-1.23898 -0.705718 20.8429
-0.954636 -0.721805 22.5587
-0.525257 -0.598396 17.7112
-0.633911 -0.572852 17.6647
-0.59837 -0.676846 16.864
-0.41481 -0.881812 17.617
-0.491105 -0.891574 17.685
-0.561944 -0.874785 17.6576
-0.422859 -0.86802 17.6099
-0.730272 -0.710472 22.2185
-0.509014 -0.960394 18.1204
-0.570481 -0.939333 18.0664
-0.632121 -0.55857 16.8452
-0.432699 -0.84523 17.7536
-0.640828 -0.873919 18.0277
-0.460304 -0.851627 17.9913
-1.47 -0.954602 18.8686
-0.593244 -0.871983 18.1953
-0.623731 -0.916487 18.5155
-0.536033 -0.832125 18.0422
-1.31353 -0.93104 18.8706
-0.451575 -0.817251 17.9682
-1.33731 -0.879147 18.5992
-0.43619 -0.887005 18.5266
-0.425551 -0.758118 17.6406
-1.60656 -0.932809 19.1583
-2.11728 -1.9847 27.0471
-0.373056 -3.36454 36.6279
-1.39964 -0.86256 18.7835
-0.625089 -1.54705 23.7062
-0.53967 -0.526195 18.3025
-0.567098 -1.54666 23.8007
-1.50284 -1.54072 24.1221
-0.476122 -0.901783 18.991
-2.38255 -2.16698 30.2878
-1.95474 -1.80271 27.1078
-1.38644 -0.850166 19.1345
-1.78429 -1.03418 21.4672
-0.512238 -0.68779 17.6906
-0.451623 -0.705101 17.8711
-0.522914 -1.15605 23.4125
-0.453876 -0.657099 17.6421
-0.758774 -0.853244 21.2572
-1.5735 -0.904833 22.8548
-1.67149 -0.75302 20.3319
-1.582 -0.958309 24.0985
-1.69459 -0.769682 20.8217
-1.59986 -0.777916 21.2995
-0.995359 -0.808977 21.7478
-0.701435 -0.762936 20.7073
-1.66156 -0.854807 24.3026
-0.737553 -0.532263 18.5748
-1.62218 -0.749512 21.875
-0.594125 -0.712266 19.9472
-2.75708 -1.28781 39.8709
-0.972668 -0.639829 19.2621
-0.869809 -0.699761 22.4894
-1.03673 -0.582704 18.1673
-0.767001 -0.628686 20.5063
-0.630727 -0.557561 16.8515
-0.52202 -0.884013 17.6665
-0.609074 -0.860245 17.6031
-0.579003 -0.856143 17.6005
-0.555003 -0.942966 18.0632
-0.528365 -0.934932 18.0653
-0.495701 -0.933642 18.0692
-0.607095 -0.922227 18.0599
-0.579503 -0.91168 18.0096
-0.581927 -0.910642 18.046
-0.578715 -0.91162 18.05
-1.36841 -1.01959 18.7052
-1.35299 -0.977336 18.5231
-0.447444 -0.828958 17.9408
-1.54396 -0.979475 19.0095
-0.635359 -0.90399 18.4249
-0.554271 -0.83206 17.9924
-1.354 -0.900259 18.7518
-1.30524 -0.905039 18.8043
-1.41717 -0.880005 18.7166
-0.672505 -1.63716 23.8388
-1.34591 -0.862575 18.6728
-1.60363 -1.53099 23.4727
-1.1939 -0.911083 19.0245
-1.72922 -0.967176 27.8232
-0.728505 -1.63316 24.374
-0.442064 -0.739424 17.692
-1.41561 -0.852016 18.806
-1.28814 -0.883978 19.0684
-1.86976 -1.70264 25.8188
-0.728142 -1.20993 21.6971
-1.0308 -1.02665 20.3915
-1.40263 -0.808565 18.8237
-0.766038 -0.905068 19.7443
-3.10207 -1.40877 26.4809
-1.67751 -0.829474 20.2747
-1.96476 -0.951929 22.0484
-1.21372 -1.96652 35.6493
-5.67064 -6.24211 100.302
-1.66956 -1.01597 24.3367
-1.64367 -0.748747 20.0267
-1.51535 -0.742921 19.9884
-2.28404 -1.58039 37.8792
-1.69408 -0.919908 24.6839
-0.721927 -0.468776 17.4298
-0.522917 -0.618555 17.9829
-0.973739 -0.646077 20.9396
-0.777823 -0.640167 20.81
-1.07067 -0.602716 19.5035
-0.61147 -0.574586 17.3786
-0.730067 -0.558081 17.9993
-0.861752 -0.538834 17.6428
-0.775071 -0.519293 18.2271
-0.502974 -0.886193 17.607
-0.437594 -0.863338 17.637
-0.343298 -0.804405 17.6349
-1.4501 -0.655618 20.1617
-1.43397 -0.944389 18.8154
-1.58593 -1.75054 24.0986
-1.31654 -0.904196 18.8007
-1.45869 -0.917031 19.1369
-0.475397 -0.808187 18.2703
-1.31736 -0.878993 18.9819
-1.28034 -0.888954 19.0926
-0.816946 -1.25674 22.4784
-0.518808 -0.850464 18.9068
-1.66606 -1.05094 21.4096
-2.18366 -2.05355 31.4362
-0.683094 -0.930929 20.0556
0.15075 -4.33364 53.652
-0.309759 -1.00279 20.7058
-1.5142 -0.929324 20.4073
-1.45203 -0.924037 20.7877
-1.34258 -0.830294 19.8103
-1.33003 -0.945913 21.9152
-0.852344 -1.03296 23.2363
-0.438888 -0.672926 17.9778
-0.608206 -0.847245 21.866
-1.45821 -0.763299 21.9848
-1.39644 -0.655825 19.0701
-0.646736 -0.863749 24.933
-0.937571 -0.628483 18.6547
-0.689037 -0.591273 17.8663
-0.519945 -0.581096 17.336
-0.649709 -0.552148 17.6872
-0.441275 -0.906892 17.7347
-0.486365 -0.866092 17.6233
-0.922411 -0.571161 18.0873
-0.616103 -0.597718 17.1847
-0.543418 -0.612082 17.6649
-0.424816 -0.825834 17.6002
-0.653805 -0.992742 18.3044
-0.523076 -0.921211 18.0337
-0.57518 -0.918809 18.1851
-0.546977 -0.912905 18.1832
-0.555595 -0.937569 18.6392
-0.52775 -0.90204 18.5428
-0.427729 -0.798949 17.9239
-0.636723 -0.859698 18.4506
-0.775673 -0.76096 17.9241
-1.29297 -0.882697 18.8687
-1.26476 -0.87257 18.855
-1.61875 -1.22293 21.6858
-0.594681 -0.871401 18.8609
-0.542758 -0.635178 18.4634
-0.759864 -0.672892 19.4586
-0.499075 -1.53725 24.8482
-2.18679 -1.96778 29.0078
-0.576265 -0.860583 19.1138
-1.99507 -0.212947 21.4114
-0.602657 -0.69009 19.7511
-1.23912 -0.887699 20.7798
-1.8321 -1.31508 28.1337
-0.450002 -0.655536 17.6602
-0.43686 -1.58145 32.9396
-0.502555 -0.773596 19.7794
-1.40031 -0.807961 21.5993
-1.65327 -1.07371 27.3872
-1.63038 -0.699155 20.0577
-0.451446 -0.648026 18.2826
-1.89797 -1.45894 42.9166
-0.522837 -0.649732 18.5623
-0.422046 -0.843506 17.7379
-0.493607 -0.894659 18.0384
-0.631015 -0.940546 18.4684
-0.459668 -0.887462 18.2366
-0.608962 -0.847866 18.0641
-0.621281 -0.916139 18.5245
-0.465201 -0.91026 18.4767
-2.02068 -2.14149 27.3589
-2.0016 -2.05431 27.0528
-0.491323 -0.868174 18.6773
-1.5573 -1.73132 25.3704
-0.451779 -0.773363 18.1231
-0.698239 -0.608109 18.0015
-1.38191 -0.853743 19.0802
-1.74283 -1.10846 21.726
-1.75666 -1.1253 21.885
-1.52214 -0.996313 21.4455
-2.0497 -1.74231 31.634
-0.448772 -0.662783 17.668
-1.9256 -0.908668 21.6446
-0.545435 -0.671467 18.019
-0.407012 -0.693801 18.3546
-1.07392 -0.861745 22.989
-0.540194 -0.846184 22.4561
-1.30958 -0.927021 18.7936
-1.44662 -0.928943 19.4154
-1.38402 -0.853087 19.0807
-0.576348 -0.406021 18.04
-0.656502 -0.910717 22.1741
-0.746831 -0.900742 22.051
-0.452964 -0.885216 18.1711
-0.539786 -0.811425 18.0157
-0.417201 -0.904849 18.5011
-0.53183 -0.922364 18.6995
-0.646964 -0.926164 18.9093
-0.737202 0.112331 21.27
-1.97778 -2.25078 27.8422
-1.96089 -2.21381 27.89
-1.9933 -2.03764 27.0021
-0.520122 -0.779371 18.0925
-0.765854 -0.589195 18.0019
-0.599833 -0.862744 18.886
-0.443258 -0.756568 18.0301
-0.447273 -0.770881 18.1611
-0.553977 -0.601305 17.6588
-0.483025 -0.873451 19.005
-0.445056 -0.770464 18.2213
-0.981961 -0.973698 20.0867
-1.48028 -0.97149 20.8807
-0.770124 -1.04955 21.9564
-0.57707 -0.817587 19.3425
-2.07795 -1.47002 28.7644
-0.439774 -0.708629 18.3085
-1.19931 -1.52592 31.006
-1.48159 -0.817379 21.6743
-0.652478 -0.754777 20.3505
-0.441378 -0.663519 18.142
-1.52594 -0.764822 21.3789
-1.88049 -0.952564 26.0847
-1.45528 -0.7828 22.0006
-1.84576 -1.71262 45.4686
-0.59639 -0.675151 18.6753
-1.63366 -0.752937 21.6285
-1.48217 -0.704127 20.8598
-0.582448 -0.657983 18.58
-0.860103 -0.693253 20.1488
-0.58557 -0.657316 18.6757
-0.785607 -0.639934 18.8143
-0.901193 -0.615485 18.4099
-0.549662 -0.613355 18.0021
-0.7669 -0.598421 17.567
-0.499631 -0.866382 17.9793
-0.457081 -0.864395 18.2431
-0.596008 -0.917798 18.5113
-0.603831 -0.911243 18.5076
-0.566425 -0.873079 18.4462
-0.48239 -0.89369 18.5902
-0.62573 -0.881932 18.6009
-0.58483 -0.860774 18.4806
-1.47141 -3.15505 32.1585
-0.501548 -0.839697 18.4961
-0.572683 -0.93267 19.0893
-0.487787 -0.889587 18.8113
-1.18923 -0.912106 19.1395
-0.478021 -0.769513 18.1556
-2.24163 -2.11753 27.7672
-0.561484 -0.616675 18.0539
-0.631384 -1.40051 22.759
-2.06974 -1.90916 26.9871
-0.929962 -1.05636 20.478
-0.591339 -0.632968 18.6933
-0.732918 -1.537 24.2665
-0.563668 -0.923492 19.6002
-0.963227 -0.949302 20.0415
-0.949604 -0.945878 20.0095
-0.444273 -0.703796 17.9586
-1.37706 -0.868558 19.9922
-1.00025 -1.55169 27.7456
-1.59253 -0.905278 20.9781
-0.51251 -0.788923 19.5609
-0.539379 -0.673873 18.0026
-1.5174 -0.867794 21.855
-1.56093 -0.787985 20.6387
-0.654771 -0.754758 19.7151
-0.477103 -0.891895 22.1269
-0.754286 -0.700671 19.1386
-1.43595 -0.78757 21.9089
-0.489847 -0.683343 18.911
-0.612864 -0.63877 18.153
-0.569421 -0.639718 18.5098
-0.467656 -0.89523 18.012
-0.363385 -0.639321 17.9572
-0.597818 -0.618166 18.3259
-0.602228 -0.629784 18.601
-0.61045 -0.968721 18.5763
-0.641507 -0.672689 19.761
-0.444394 -0.794204 17.9718
-0.639436 -0.885714 18.5622
-0.606073 -0.692453 20.0428
-0.552409 -0.612618 17.9955
-1.68578 -1.90343 25.7116
-0.620595 -1.68613 24.3893
-2.26149 -2.27074 29.0234
-2.16036 -2.05228 27.9366
-2.15848 -1.67503 28.1522
-0.588483 -0.795394 19.0292
-1.77511 -1.27095 24.7807
-0.535823 -1.02328 21.7712
-0.443255 -0.686598 17.9701
-2.03122 -1.65854 31.1258
-1.55926 -1.07318 24.1155
-1.38337 -0.747438 21.6068
-1.62607 -1.09897 26.1248
-0.814458 -0.91035 23.3747
-0.405134 -0.671185 18.4145
-0.399868 -0.663588 18.438
-1.50889 -0.751401 21.5354
-0.460973 -0.921892 18.2515
-0.48196 -0.747215 17.9043
-0.44924 -0.698508 17.9987
-0.439886 -0.664061 17.9679
-2.108 -2.33816 46.1447
-0.62685 -0.960779 18.5893
-0.522406 -0.967998 18.7275
-0.539399 -0.904216 18.5254
-0.49487 -0.90407 18.528
-0.638774 -0.869228 18.5127
-0.494484 -0.875789 18.556
-0.608561 -0.867363 18.5634
-0.630349 -0.848864 18.5246
-0.474077 -0.846041 18.4754
-0.488249 -0.903051 18.8836
-1.99697 -2.19532 26.8729
-0.474207 -0.841842 18.5387
-0.448542 -0.772061 18.121
-2.05062 -2.13634 26.8819
-1.96768 -2.09207 26.9524
-0.583218 -0.87923 18.9025
-0.656151 -2.29565 28.0769
-0.59059 -0.897192 19.0897
-0.467021 -0.808776 18.5075
-0.465144 -0.749345 18.1142
-2.09366 -1.89909 26.7291
-0.506272 -0.640419 18.5404
-0.524037 -0.86843 19.0796
-0.48535 -0.965872 19.8325
-1.02219 -0.992975 20.2265
-0.545808 -0.634068 17.984
-0.580796 -0.650896 18.6463
-1.48619 -1.04969 21.4288
-2.38615 -1.90387 30.7066
-0.543752 -0.61239 17.9785
-0.456055 -0.703058 18.1192
-1.73311 -1.22306 24.5511
-0.547324 -0.838076 19.8993
-1.47419 -0.867663 20.7105
-0.800567 -0.941173 22.2626
-1.44296 -0.807386 20.7226
-1.55927 -0.784877 20.6315
-0.410845 -0.688904 18.3383
-0.934113 -0.651543 19.1568
-1.84627 -1.30228 30.8366
-0.66727 -0.75563 19.8287
-0.486351 -0.786256 20.3061
-1.35317 -1.12212 27.5438
-0.694685 -0.766865 20.7201
-1.88593 -0.974891 26.8615
-0.544585 -0.710976 19.4101
-0.530835 -0.746802 21.2908
-0.716805 -0.698223 20.2665
-0.533876 -0.894959 18.4992
-0.459678 -0.891219 18.4809
-0.487367 -0.892659 18.5517
-0.599561 -0.876472 18.53
-0.483538 -0.887663 18.572
-0.600461 -0.867518 18.543
-0.492336 -0.867145 18.5222
-0.467097 -0.837296 18.4159
-0.498966 -0.904786 18.8452
-0.517763 -0.838541 18.4989
-0.499662 -0.902968 18.9729
-0.599737 -0.890061 18.9362
-2.04472 -2.14656 26.9064
-1.95367 -2.14714 26.8916
-0.0577958 -3.22463 33.8656
-0.677668 -1.66294 24.489
-0.440031 -2.0762 27.3993
-0.467699 -1.60379 24.2308
-0.574305 -0.868134 19.163
-0.594765 -0.993486 20.2148
-0.567299 -0.966306 19.9995
-0.661857 -1.51822 24.3732
-1.58196 -1.11302 21.5562
-0.591304 -0.838149 19.1004
-0.434122 -1.00817 20.434
-1.61037 -1.09036 21.5133
-1.31848 -1.31742 23.4372
-0.551465 -0.698377 17.9932
-1.85513 -1.9151 28.8392
-1.51274 -0.974515 20.7463
-1.73225 -1.47664 25.2975
-0.38897 -1.01262 20.797
-0.543552 -0.725529 18.2672
-0.534283 -0.737156 18.3872
-0.666463 -0.894826 19.9544
-0.647368 -0.886733 19.9214
-1.55698 -1.01851 21.5214
-2.08694 -1.45465 26.7025
-2.17735 -1.45624 26.9521
-0.47783 -0.768551 18.915
-1.46831 -0.980829 21.6277
-0.57709 -0.748439 18.7866
-0.777939 -0.983757 21.7488
-1.64588 -1.26614 26.052
-1.75497 -1.35261 27.2113
-0.449337 -0.714231 18.5139
-1.48049 -0.830248 20.6783
-0.464586 -0.800967 19.8791
-1.66325 -1.0345 23.9004
-1.5367 -1.04789 24.0529
-5.1139 -6.99948 114.427
-0.476714 -0.718722 18.9163
-0.669971 -0.774541 20.3586
-1.29099 -1.05668 27.0017
-0.59133 -0.696979 19.055
-0.371462 -0.766079 20.7245
-0.682286 -0.723533 19.9782
-0.545892 -0.655872 18.1323
-0.592202 -0.674569 18.9855
-0.58506 -0.653001 18.4022
-0.750979 -0.668855 19.4688
-0.554028 -0.629616 18.0236
-0.555403 -0.628272 18.0068
-0.649227 -0.620382 17.9874
-0.128968 -0.495342 10.7573
-0.294631 -0.268757 10.3804
-0.288412 -0.288817 10.4118
-1.19959 -0.64401 12.0868
-0.30963 -0.280606 10.4393
-0.155396 -0.42762 11.4471
-1.03549 -0.314617 11.9745
-0.504261 -0.322113 11.5779
-0.248375 -0.492607 11.294
-0.314818 -0.433368 11.0481
-0.339623 -0.431566 12.6438
-0.535464 -0.32101 11.225
-0.225776 -0.528898 11.6916
-0.269815 -0.492846 11.6743
-0.618145 -0.389088 13.9756
-0.328011 -0.632001 12.062
-1.35276 -0.465196 13.5161
-0.451655 -0.685345 12.3938
-19.5161 0.783455 64.5845
-0.57637 -0.595642 13.6937
-1.7115 -1.14699 19.7189
-1.38031 -0.969944 18.0278
-1.71619 -1.39101 17.9447
-1.8397 -1.40581 17.9375
-2.05403 -1.9672 26.5045
-0.480672 -0.921421 18.5754
-0.455214 -0.89199 18.4892
-0.553706 -0.706341 17.9891
-0.484225 -0.744719 20.008
-0.571422 -0.618419 18.0651
-0.566027 -0.633724 18.3926
-0.594907 -0.871787 18.5088
-0.464843 -0.812032 18.3305
-0.564289 -0.862936 18.5692
-0.468878 -0.837955 18.4484
-0.620562 -0.886683 18.7177
-0.615684 -0.929134 18.9796
-0.518743 -0.935663 19.0368
-0.66877 -0.887733 18.9051
-0.65322 -0.631988 18.5296
-0.476295 -0.883021 18.9653
-0.620671 -0.64379 18.9061
-0.6402 -0.869917 18.934
-0.5423 -0.886411 19.0446
-0.45437 -0.878556 18.9844
-0.535734 -0.860304 18.9077
-0.674778 -0.871798 19.0323
-1.9536 -2.08813 26.8959
-2.00969 -2.07376 27.0534
-0.688117 -1.54719 23.5289
-1.60005 -1.73847 25.0269
-0.55018 -1.21525 21.561
-1.01205 -0.982569 20.1194
-2.11968 -1.85353 26.992
-0.456249 -0.965609 20.039
-1.62985 -1.655 25.658
-0.608954 -0.909256 19.8146
-0.555073 -1.21728 22.458
-0.52909 -0.748273 18.5261
-0.563508 -0.741767 18.5094
-0.654385 -0.841964 19.5693
-0.47044 -0.734522 18.545
-0.507917 -0.874486 20.0882
-1.43925 -0.964131 21.4892
-0.564079 -0.774034 19.2975
-0.672257 -0.99226 22.5237
-0.476569 -0.714346 18.6715
-0.6892 -0.889896 21.3259
-0.671634 -0.926601 22.4289
-0.549519 -0.807429 20.6205
-1.26225 -1.01812 25.1325
-0.492301 -0.705354 18.8814
-1.54469 -0.834929 22.4634
-1.88249 -1.01846 26.7569
-0.479307 -0.688132 18.7225
-0.490062 -0.691568 18.863
-1.61471 -0.83636 23.6137
-0.505661 -0.69116 19.0732
-0.595649 -0.672419 18.6517
-1.64293 -0.744928 21.7738
-1.46653 -0.708683 21.1802
-0.597871 -0.653635 18.4534
-0.561341 -0.64683 18.1351
-0.58974 -0.651238 18.6474
-0.581487 -0.644478 18.3695
-0.695477 -0.612827 17.9265
-0.646585 -0.864511 18.5106
-0.632774 -0.845681 18.5003
-0.619804 -0.844364 18.5063
-0.516264 -0.857856 18.5662
-0.645983 -0.944821 18.9741
-0.633903 -0.926628 18.9613
-0.502201 -0.819736 18.4894
-0.636734 -0.912704 18.9456
-0.677242 -0.921236 19.0161
-0.611221 -0.910854 18.969
-0.575063 -0.901879 18.9576
-0.564046 -0.902239 18.9703
-0.474385 -0.889228 18.9834
-1.79409 -1.96587 25.8623
-0.926722 -0.992238 20.1938
-0.897704 -0.991642 20.184
-1.45851 -1.54901 24.445
-0.911087 -0.968804 20.1306
-0.82112 -0.975677 20.1624
-2.16204 -1.8291 26.7474
-1.36528 -1.44158 23.7362
-0.7757 -1.38667 23.2973
-0.77785 -1.28886 22.8828
-0.452533 -0.746962 18.5047
-0.743854 -0.934143 20.0934
-1.56073 -1.04997 21.3816
-1.58859 -1.03093 21.4149
-1.54897 -1.03163 21.48
-2.04399 -1.59872 26.7756
-0.59516 -0.960501 20.6122
-0.472798 -0.767462 18.8201
-0.474553 -0.753568 18.6936
-1.58126 -1.02231 21.4709
-1.79975 -1.54842 26.5876
-1.77132 -1.53553 26.6295
-0.474223 -0.767775 18.9155
-1.72063 -1.4093 26.2276
-1.77422 -1.60048 28.2942
-0.582287 -0.773991 19.1832
-0.733478 -0.921731 20.9561
-0.63533 -0.857553 20.1926
-1.55578 -0.93905 21.4579
-0.916705 -1.09103 23.4907
-0.467273 -0.720261 18.6887
-0.610121 -0.718229 18.7598
-0.44764 -0.776947 19.6875
-0.464792 -0.695852 18.476
-0.485797 -0.706908 18.7463
-0.469318 -0.695069 18.5452
-1.55463 -0.813429 21.214
-0.491396 -1.00667 24.3753
-0.575971 -0.616586 18.0734
-1.51862 -1.0046 26.7182
-0.497394 -0.690523 18.8259
-1.66833 -0.785819 21.7969
-0.444397 -0.72291 19.889
-0.752604 -0.821395 23.0727
-0.636906 -0.732226 20.5675
-0.480349 -0.674494 18.6796
-1.30553 -0.738165 21.3533
-1.00498 -0.750592 21.5902
-0.568023 -0.663295 18.426
-0.599161 -0.650281 18.5107
-0.589215 -0.650472 18.6858
-0.508352 -0.639954 18.5092
-0.58307 -0.635836 18.4615
-0.594019 -0.633679 18.5122
-0.550668 -0.633391 18.23
-0.555166 -0.632261 18.1692
-0.715564 -0.626551 18.2967
-0.476943 -0.881121 18.577
-0.562046 -0.621517 18.1271
-0.459946 -0.60108 18.2863
-0.529361 -0.876167 21.2706
-0.469181 -0.871278 18.5822
-0.60916 -0.851883 18.5417
-0.48457 -0.851297 18.5235
-0.624255 -0.938779 18.9855
-0.48031 -0.897814 18.7997
-0.491759 -0.832336 18.5413
-0.660799 -0.927886 18.9963
-0.66315 -0.918012 18.9859
-0.475775 -0.849119 18.693
-0.655288 -0.879202 18.9054
-0.463609 -0.804219 18.5233
-0.513874 -0.899768 19.0068
-0.568765 -0.800027 18.5328
-0.615416 -0.896279 19.1089
-0.608455 -0.874385 19.0062
-0.50088 -0.846113 18.8405
-0.568672 -0.853642 18.9277
-0.500517 -0.770232 18.5099
-1.6974 -1.64295 24.198
-0.459054 -0.967988 19.7862
-0.519569 -0.957855 19.7576
-0.501853 -0.836739 19.072
-0.862784 -0.991627 20.2118
-0.642509 -0.988816 20.1567
-0.381791 -0.763069 18.5651
-0.825082 -0.980434 20.1959
-0.783622 -1.565 24.5092
-0.500967 -0.881034 19.4901
-0.789864 -1.50222 24.148
-0.793868 -0.951915 20.1232
-0.337524 -1.05242 20.9447
-1.79752 -1.87482 28.3225
-0.462525 -0.737511 18.5569
-0.473067 -0.764822 18.81
-1.57044 -1.02353 21.3811
-1.51569 -1.40599 24.8146
-0.73263 -0.995347 20.9719
-0.687307 -0.918911 20.2753
-0.603263 -0.914559 20.2205
-0.634144 -1.4557 25.5247
-2.07386 -1.44292 26.5123
-1.76364 -1.30486 24.9927
-0.343236 -1.21267 24.0016
-1.51332 -0.942511 21.4242
-0.575345 -0.765933 19.2203
-0.371173 -0.876357 20.6195
-1.60466 -1.26905 25.9756
-0.470431 -0.755477 19.2129
-0.475168 -0.719413 18.7686
-0.717605 -0.95604 22.124
-0.769852 -0.737026 19.2759
-1.58688 -0.885665 22.2108
-0.951506 -0.795404 20.485
-0.462897 -0.69964 18.7043
-1.39193 -0.787977 20.7845
-1.52146 -0.76999 21.2766
-1.63055 -0.755403 21.5048
-0.478173 -0.690433 19.2969
-0.467355 -0.675978 18.8046
-1.42717 -0.733329 21.4105
-0.595711 -0.674694 18.8947
-0.647221 -0.695977 20.2285
-0.731022 -0.677291 20.0465
-0.585928 -0.645235 18.7281
-0.76434 -0.63921 18.8502
-0.600738 -0.641251 18.7244
-0.500434 -0.639726 18.5361
-0.59792 -0.636322 18.6377
-0.584386 -0.638429 18.4168
-0.600305 -0.624893 18.6852
-0.605887 -0.625353 18.5842
-0.79498 -0.624471 18.4927
-0.603366 -0.626097 18.491
-0.575594 -0.621469 18.4247
-0.594184 -0.619349 18.3019
-0.72405 -0.615822 18.295
-0.679873 -0.62097 18.1379
-0.505595 -0.818196 23.6182
-0.493045 -0.842192 18.5114
-3.45866 2.08488 28.8486
-0.720378 -0.631477 18.5957
-0.705077 -0.641623 18.8033
-0.584822 -0.644391 18.6891
-0.65117 -0.928364 18.9749
-0.70998 -0.645547 18.8382
-0.484054 -0.896104 18.8883
-0.630664 -0.889217 18.9332
-0.592658 -0.876395 18.9008
-0.590551 -0.876533 18.9012
-0.525538 -0.856788 18.9657
-0.566247 -0.759069 18.5163
-0.579525 -0.841171 19.035
-0.522809 -0.823867 18.921
-1.41333 -1.6275 24.1636
-0.432989 -1.52506 23.6984
-0.593449 -0.80778 18.9124
-0.439626 -0.961919 19.9554
-0.456915 -0.744187 18.4878
-0.998355 -0.95903 20.0666
-0.602049 -0.820534 19.085
-0.655636 -1.03247 20.7444
-0.595977 -1.07811 21.1308
-0.460289 -0.964291 20.2821
-0.592213 -0.80967 19.1626
-1.59227 -1.06415 21.4268
-1.72648 -1.45696 24.9366
-2.00518 -1.62902 26.601
-0.603725 -0.98583 20.7971
-0.48222 -0.768994 18.9073
-1.5757 -1.03609 21.4949
-1.64496 -1.58366 26.4605
-0.641005 -0.901165 20.1891
-0.462717 -0.719568 18.5029
-1.65204 -1.55169 26.8298
-1.54675 -0.977487 21.4888
-1.45965 -0.967345 21.3684
-1.55921 -0.941225 21.3273
-1.54784 -0.958589 21.5228
-1.48745 -0.941996 21.4063
-1.67219 -1.03223 22.4831
-0.526536 -0.921533 21.101
-0.701877 -0.897203 22.2197
-1.48354 -0.822413 21.178
-0.98396 -1.03758 27.9099
-0.593007 -0.653089 18.5237
-1.04672 -0.780252 22.2776
-0.566347 -0.662359 18.439
-0.566771 -0.702738 20.1053
-0.461902 -0.665451 18.5809
-1.08406 -0.708345 20.7199
-0.586709 -0.658485 18.5888
-0.578416 -0.654978 18.4531
-0.547823 -0.655749 18.4912
-0.598923 -0.659069 18.8832
-0.600547 -0.637372 18.6611
-0.636565 -0.919984 18.9643
-0.529303 -0.920416 18.997
-0.664486 -0.885919 18.9399
-0.595667 -0.880935 19.0274
-0.506577 -0.888415 19.0645
-1.83698 -2.07401 26.6691
-0.676326 -1.71364 24.352
-0.432899 -0.971088 19.9388
-1.04421 -0.988147 20.1804
-0.665606 -0.974913 20.1049
-0.763705 -1.61834 24.518
-0.901218 -0.951934 20.0676
-1.46275 -1.61172 24.8466
-0.567075 -0.733606 18.5166
-1.79009 -1.64985 26.2275
-1.53832 -1.05187 21.5573
-1.99493 -1.43538 25.7973
-1.30188 -0.865122 20.5293
-0.655357 -0.668634 19.6573
-0.338411 -0.828589 20.4322
-1.49775 -1.05641 24.0811
-1.43763 -0.819464 21.386
-0.506389 -0.853868 22.0243
-1.50811 -0.789185 21.1909
-3.73075 -3.23875 75.7845
-0.361976 -0.759991 20.2881
-1.54537 -0.783534 21.219
-1.51083 -0.787403 22.0659
-0.611538 -0.676509 18.7654
-0.636529 -0.917039 18.9647
-2.51431 -2.18002 53.611
-0.667967 -0.903977 18.955
-0.671579 -0.846128 18.9295
-0.554323 -0.854118 18.9983
-0.654167 -0.845906 19.0058
-2.08673 -2.17343 27.0781
-0.636157 -1.82118 24.89
-0.440729 -1.67849 24.1073
-0.405694 -0.967775 19.983
-0.875474 -0.993873 20.2131
-0.548929 -1.40706 23.0498
-1.92007 -1.87541 26.5264
-1.65659 -1.6382 25.4972
-1.62748 -1.08037 21.3948
-0.720881 -0.913793 20.0637
-0.566621 -0.991167 20.6631
-1.74664 -1.64597 26.1853
-0.776354 -0.999419 20.9835
-1.54437 -1.05329 21.566
-0.493979 -0.782755 19.1206
-2.11986 -1.5503 26.3985
-0.721227 -0.951307 20.7587
-0.649033 -0.876558 20.1433
-0.665263 -0.876643 20.1881
-2.04408 -1.47772 26.514
-0.615496 -0.866241 20.169
-1.56133 -1.05072 22.2084
-1.6612 -1.12369 23.0823
-0.425458 -0.827556 19.9207
-0.744149 -0.922501 21.0706
-0.613485 -0.823265 20.243
-1.5764 -0.981043 22.6493
-3.6548 -4.49948 73.5581
-1.61135 -0.787686 21.3439
-2.07587 -0.97999 26.0698
-1.66027 -0.793741 21.8716
-0.718514 -0.723754 20.6245
-1.28696 -0.731482 21.1961
-0.660522 -0.674636 19.6695
-0.60567 -0.666072 18.9811
-0.773361 -0.669056 19.4688
-0.707255 -0.670759 19.626
-0.598788 -0.657685 18.884
-0.78238 -0.641972 18.7578
-0.730206 -0.624873 18.6349
-0.983988 -0.495272 19.5673
-0.57843 -0.920512 19.0276
-0.566401 -0.712537 18.516
-0.56445 -0.711033 18.5109
-0.665085 -0.63965 18.7764
-0.846414 -0.663284 19.5167
-0.701252 -0.642582 18.9193
-0.674958 -0.845594 18.9462
-0.565619 -0.855111 18.9987
-0.594948 -0.657525 18.9118
-1.02001 -0.986468 20.1381
-1.79825 -1.93446 25.9948
-0.867296 -0.988426 20.1927
-0.469313 -1.53823 23.6229
-0.441213 -0.960415 19.9901
-1.84761 -1.97978 27.054
-0.714593 -0.927844 20.1429
-0.598653 -1.11397 21.5398
-0.486736 -0.771749 18.9647
-0.978626 -0.670766 19.7396
-0.58374 -0.676177 19.6201
-0.600306 -0.785157 19.1575
-1.91097 -1.66294 26.6796
-2.05545 -1.94771 29.2882
-0.773856 -0.967617 20.7755
-1.80258 -1.63334 26.7177
-0.571359 -0.970305 20.9895
-0.654255 -0.890275 20.3386
-0.485489 -0.742707 18.9252
-0.666439 -0.893311 20.6713
-1.46158 -0.941812 21.3937
-1.5402 -1.04149 23.2467
-0.696734 -0.894825 21.4294
-0.989731 -1.26106 27.375
-3.73342 -3.53571 65.364
-1.57224 -0.941453 23.9617
-0.775686 -0.67552 19.5778
-1.56218 -0.775172 21.1942
-0.553066 -0.779347 19.0894
-0.49003 -0.687641 19.0757
-0.702893 -0.695326 20.1629
-0.702126 -0.682992 19.8867
-0.614231 -0.681166 19.7538
-0.495874 -0.828044 18.9824
-0.499401 -0.815655 18.9391
-0.493083 -0.969517 19.8965
-0.444404 -1.61476 23.5315
-0.654481 -0.982965 20.0842
-0.480795 -1.25317 21.6331
-0.404101 -1.72971 24.4549
-0.906638 -0.98955 20.186
-0.795986 -0.973142 20.1993
-0.753968 -0.938449 20.0971
-0.721704 -0.933853 20.0891
-2.10536 -1.83444 26.8196
-1.53171 -1.07729 21.3905
-1.8683 -1.7077 26.116
-0.587048 -0.97996 20.6653
-0.520954 -0.786757 19.1746
-1.69475 -1.68118 26.5334
-2.11683 -1.64757 26.4303
-0.726549 -0.984859 20.8799
-2.38414 -1.95733 29.9709
-3.73071 -3.6174 56.9511
-0.682411 -0.934537 21.762
-0.633175 -0.815951 20.2152
-1.56454 -1.00622 22.906
-3.41821 -4.09293 65.61
-0.769471 -0.781469 20.0714
-1.3854 -0.80772 21.0764
-0.500313 -0.712094 19.177
-1.50858 -0.811419 21.5434
-0.54604 -0.819848 21.5935
-1.87801 -0.846893 23.2288
-0.582029 -0.689698 18.9431
-0.56872 -0.683244 18.9689
-1.01235 -0.706453 20.7365
-0.812197 -0.692247 19.8804
-0.916937 -0.689316 19.9382
-0.703691 -0.683553 19.9465
-0.564895 -0.681297 19.6968
-1.41958 -0.684803 20.7813
-0.735092 -0.66887 19.7558
-0.886879 -0.664447 19.2779
-0.818294 -0.658246 19.3218
-1.78189 -0.979002 27.1504
-0.696101 -0.64644 18.8826
-0.724976 -0.643296 18.7364
-0.539203 -0.864665 19.0198
-1.50323 -1.24514 31.0837
-0.796967 -1.0094 23.1947
-0.505494 -0.808773 18.9266
-0.590384 -0.851423 19.1309
-0.587674 -0.810103 18.9505
-0.612744 -0.83927 19.1316
-0.553374 -0.977725 19.9055
-1.06733 -1.07987 20.7306
-1.81065 -1.9446 26.0764
-0.361059 -1.63809 24.1855
-0.589699 -0.806983 19.1506
-1.00169 -0.939588 20.0571
-0.588114 -0.799887 19.1497
-0.606238 -0.797744 19.1486
-0.662732 -1.25291 22.1567
-0.685126 -0.985369 20.4582
-0.445561 -0.925937 20.0597
-0.554847 -0.814027 19.3173
-0.700649 -0.919509 20.0887
-0.483873 -0.876816 19.7895
-0.726607 -0.990918 20.6623
-0.557697 -1.14202 21.743
-0.498042 -0.788237 19.1703
-1.60759 -1.08353 21.4628
-1.95919 -1.73623 26.6798
-0.633516 -0.921369 20.3296
-1.59449 -1.01552 21.2694
-1.59663 -1.01917 21.3503
-1.95521 -1.61505 26.6619
-0.62807 -0.8319 20.0796
-0.835277 -1.05315 22.6802
-0.589943 -0.72974 19.0221
-2.21381 -1.77885 32.6735
-0.476655 -0.732094 19.1813
-1.68036 -1.00274 23.5263
-1.28188 -0.952919 22.7153
-0.481568 -0.83921 20.8805
-1.57668 -0.83057 21.2738
-1.56032 -0.835609 21.5858
-1.60019 -0.882428 22.4595
-1.68975 -0.879111 22.5732
-1.63191 -0.862116 22.3949
-0.584938 -0.698599 19.0162
-1.72086 -0.831623 22.4749
-1.73223 -0.966286 25.7011
-0.489484 -0.774738 21.1306
-1.64846 -0.760445 21.5342
-1.45113 -0.756207 21.7941
-0.678548 -0.707732 20.2291
-0.794557 -0.669474 19.5288
-0.72418 -0.665114 19.4161
-0.618036 -0.66573 19.5393
-0.633477 -0.660141 19.2485
-0.635333 -0.650776 19.1348
-0.628819 -0.650212 19.166
-0.792261 -0.650453 19.0256
-0.702037 -0.65037 18.9355
-0.531755 -0.854997 19.0201
-0.534246 -0.853937 19.0259
-0.68955 -0.64954 18.9607
-0.640445 -0.657505 19.209
-0.632592 -0.649656 19.127
-0.616017 -0.637812 19.6436
-0.590572 -0.844738 19.141
-0.597985 -0.807311 19.1701
-0.810512 -0.957434 20.1131
-0.979755 -0.684636 20.0689
-2.15789 -2.358 29.2766
-0.800337 -1.58515 24.2541
-0.522403 -0.991561 20.4323
-0.581383 -0.751603 18.9564
-0.498151 -0.936671 20.3079
-1.63553 -1.07733 21.4314
-1.87138 -1.67837 26.4934
-1.76245 -1.72235 26.9796
-0.488634 -0.764362 19.1327
-1.80434 -1.76147 27.4497
-0.758905 -1.01519 21.2315
-1.59014 -1.0309 21.4542
-0.517432 -0.943374 20.8804
-0.595364 -0.753409 19.1376
-1.55182 -0.99067 21.484
-1.49873 -0.953781 21.183
-0.752026 -0.91652 20.8296
-1.4225 -0.96614 21.4834
-1.45552 -0.94829 21.3628
-1.58057 -0.996263 22.298
-1.2856 -0.933571 21.5371
-1.36626 -0.916998 21.418
-0.463671 -0.83676 20.6773
-0.676123 -0.8654 21.4348
-1.39417 -0.919643 23.2624
-0.498561 -0.707261 19.1413
-0.589697 -0.6952 19.0011
-0.558072 -0.677989 18.9448
-0.62391 -0.727427 20.8507
-0.532572 -0.716037 20.3452
-0.845887 -0.699945 20.3898
-4.82519 -3.59445 58.0941
-0.696029 -0.646843 18.896
-0.427671 -0.965722 19.8766
-0.52216 -0.972328 19.9421
-0.945918 -0.993137 20.1842
-0.581738 -0.806292 19.1689
-0.971855 -0.982194 20.1449
-1.03025 -0.981932 20.1646
-1.94318 -2.10689 26.7321
-0.798282 -0.947716 20.057
-0.605175 -1.72861 24.5808
-0.838798 -0.951075 20.0975
-0.615949 -1.28015 22.0211
-1.95446 -2.07017 27.0225
-0.460384 -1.49044 23.5565
-0.55002 -0.971678 20.3185
-1.63954 -1.75581 25.351
-0.502997 -1.51522 24.0723
-1.73887 -1.74371 26.1741
0.244603 -1.05229 21.1749
-1.54573 -1.05245 21.3816
-4.47205 -4.73395 49.5358
-0.597693 -0.751813 19.0806
-0.682081 -0.64353 18.9058
-0.695476 -0.88543 20.2089
-0.489102 -0.899691 20.3175
-0.58655 -0.742366 19.0325
-1.61646 -1.0066 21.3973
-0.491014 -0.88615 20.299
-2.05687 -1.59424 26.6731
-0.732068 -0.898939 20.4564
-1.52418 -1.00251 21.4633
-1.48867 -0.939588 20.9393
-0.716714 -0.874679 20.457
-0.641978 -0.984214 21.5416
-1.55454 -0.970599 21.5107
-0.594705 -0.741485 19.1419
-1.57241 -0.94941 21.4179
-1.46482 -0.94354 21.3506
-1.44665 -0.970697 21.637
-1.47392 -0.938897 21.364
-1.52372 -0.995964 21.9835
-1.03981 -1.31045 25.5159
-0.691638 -0.882449 20.8197
-0.587897 -0.716391 18.9361
-0.499558 -0.828498 20.2842
-2.45028 -1.95402 34.5066
-0.633712 -0.798025 20.1314
-1.65279 -1.20488 26.0952
-1.59622 -0.982612 23.0503
-1.50346 -1.06342 24.2341
-1.84537 -1.49542 30.9839
-0.565704 -0.875945 21.516
-1.4716 -0.853814 21.3183
-1.58917 -0.92557 22.4482
-0.793754 -0.811451 20.6169
-1.51459 -0.850177 21.3553
-0.650347 -0.775401 20.0966
-1.68237 -0.915283 22.5516
-0.55253 -0.843569 21.2866
-1.6188 -0.867853 21.9936
-0.53412 -0.794716 21.2222
-0.591917 -0.704173 19.1433
-1.88962 -0.98814 26.5168
-1.76567 -0.882539 24.1178
-0.573167 -0.694048 19.0457
-1.4969 -0.758996 21.4323
-0.660803 -0.7348 20.6858
-1.22128 -0.762558 22.0253
-1.16433 -0.723944 20.8699
-0.7645 -0.705875 20.1282
-0.86176 -0.691734 20.0892
