# .PCD v.6 - Point Cloud Data file format
FIELDS x y z
SIZE 4 4 4
TYPE F F F
COUNT 1 1 1
WIDTH 1745
HEIGHT 1
#VIEWPOINT 0 0 0 1 0 0 0
POINTS 1745
DATA ascii
-0.466273 -0.633051 17.5426
-0.330283 -0.74219 18.6416
-0.205988 -0.789049 19.5003
-2.2595 -0.939078 22.7583
-1.36895 -0.919104 22.2822
-0.232336 -0.764238 19.1583
-0.0550159 -0.716976 18.3033
-0.0118583 -0.683059 17.6608
-1.39168 -0.838129 21.6646
-0.0338316 -0.682833 17.7849
-0.0910951 -0.678494 17.7567
0.000210896 -0.67193 17.5785
-1.11173 -0.694663 18.4064
-1.26709 -0.760216 20.2025
-0.109831 -0.686646 18.1625
-0.530962 -0.702732 19.0319
-0.502045 -0.68409 18.7544
-0.193017 -0.665961 17.9665
0.00348556 -0.673752 18.2435
-0.472628 -0.660879 18.1144
-0.167528 -0.655953 17.9676
-1.29732 -0.896609 19.2595
-1.16141 -1.07689 18.8324
-0.0570101 -1.10877 18.1586
-0.0261826 -0.923634 17.6607
-1.37021 -1.39334 19.3876
-0.0501391 -1.0078 18.1761
-0.135289 -0.888331 17.6942
-1.30589 -1.2629 19.2296
-0.158929 -1.28571 22.7424
-0.0779323 -0.988182 18.4901
-0.0308878 -0.792558 17.6017
-0.0273578 -0.787207 17.6251
-1.24388 -0.73874 20.3011
-0.0493185 -0.773897 17.5984
-1.13902 -0.995763 19.1729
0.0397178 -0.814962 18.0248
-1.26525 -0.948446 19.0836
-0.131283 -0.915051 18.9776
-0.191178 -0.907255 19.0546
-0.160542 -0.95008 19.5508
-0.0369257 -0.803177 18.3259
-1.13626 -1.07156 26.4204
-1.09406 -0.908862 20.0361
-0.0457601 -0.755808 18.187
-0.312191 -0.785595 19.4649
-1.28958 -0.747889 18.8901
-1.34814 -0.818205 20.3109
-0.0820493 -0.715337 18.4201
-0.478297 -0.671127 18.2574
-1.35747 -1.0579 26.6317
-1.2861 -0.773736 20.0787
-2.19227 -2.35232 59.7889
-0.0237041 -0.766622 17.4785
-1.00855 -1.2074 18.3104
-0.0457448 -0.761352 17.4679
-0.164396 -0.625652 17.2931
-1.56998 -1.50145 29.6876
-2.51548 -1.93633 51.3541
-0.109875 -0.923995 17.7085
-1.28117 -1.30613 19.1837
-0.0198859 -0.875929 17.6673
-1.30026 -1.26231 19.2179
-0.0214736 -0.863944 17.6637
-0.0591638 -0.920855 17.9245
-1.29428 -1.13817 18.8889
-1.37071 -1.208 19.3188
-1.07851 -1.0585 18.779
-1.11535 -0.998162 18.5487
-0.0367478 -0.978027 18.468
-0.0275508 -0.918248 18.26
-0.0294459 -0.792739 17.612
-0.224616 -0.971883 18.6143
-0.537146 -0.624272 18.0257
-0.028262 -0.787055 17.6151
-0.687873 -0.653398 18.0937
-0.135786 -0.934425 18.5276
-1.26285 -1.07035 19.3817
-1.25261 -1.0149 19.0758
-1.31789 -1.03167 19.215
0.57533 -2.54825 28.8654
-0.15423 -0.990319 18.9892
-0.0552139 -0.773609 17.6215
-0.468298 -0.639193 17.7712
-0.0596384 -0.764431 17.6161
-1.12523 -0.992331 19.1939
-0.0670944 -0.760926 17.6204
-0.15416 -0.640949 17.6945
-0.852245 -0.972618 19.1887
-0.141848 -1.10767 20.3356
-0.0788311 -0.900542 18.762
-0.841963 -0.946451 19.1671
-0.182155 -0.899055 18.8224
-0.0557227 -0.896256 18.8459
-1.05136 -0.944847 19.2391
-0.0225876 -0.742997 17.6661
-1.28927 -0.915386 19.1251
-1.03454 -0.917297 19.1552
-0.221114 -0.81342 18.3234
-0.0453489 -0.805254 18.2932
-0.0313785 -0.72852 17.5938
-0.986313 -0.869467 18.9209
-0.142683 -0.829126 18.6296
-0.148485 -0.647692 17.6975
-0.187156 -0.857607 18.9572
-0.113057 -0.890146 19.2878
0.0610135 -1.03647 20.7638
-0.0379884 -0.788357 18.2736
-0.230099 -1.02563 20.7329
-0.128516 -1.15092 22.0252
-0.126451 -0.877575 19.2207
-0.00477727 -0.745454 17.9317
-0.830858 -0.919575 19.8324
-0.300051 -0.898154 19.6343
-0.00975015 -0.738446 17.9163
-0.0202297 -0.698334 17.5707
0.0303854 -1.14119 23.8837
-1.20497 -1.09743 23.3649
-0.224245 -0.656508 17.9359
-1.30523 -0.890025 20.5912
-0.112684 -0.79523 19.2389
-0.031328 -0.690487 17.6008
-0.167065 -0.648901 17.7979
1.36172 -2.41368 45.9821
0.271478 -1.24696 26.7706
-1.23257 -0.772734 19.0079
-1.28968 -0.834749 20.4123
-0.269564 -0.642662 17.9061
-2.52636 -1.44692 32.8718
-0.356018 -0.66758 17.3318
-0.00267076 -0.671132 17.5823
-0.151051 -0.690661 18.0984
0.00326117 -0.670777 17.6252
0.00540714 -0.668844 17.6302
-1.40462 -0.734607 19.2603
-0.834855 -0.820118 21.8693
-1.25447 -0.716999 18.9364
-1.25035 -0.717958 18.9673
-0.16373 -0.666778 17.7264
-1.27483 -0.757753 20.8018
-1.03245 -0.727919 19.7839
-1.31422 -0.712002 19.34
-1.08996 -0.703585 19.078
-0.232999 -0.679176 18.3882
-0.471726 -0.675924 18.3279
-1.41024 -1.43085 19.1725
-1.05281 -0.866566 18.4061
-0.00949317 -0.684137 17.592
-1.29899 -0.738172 19.0071
0.00190611 -0.670762 17.619
-1.36439 -1.32697 19.2339
0.222473 -1.08233 25.5706
-1.31174 -1.30579 19.2374
-1.29679 -1.22838 19.2021
-16.6246 -10.3247 58.4925
-0.228626 -0.727242 19.7341
-0.462734 -0.634426 17.5239
-1.3307 -0.614292 19.1374
-0.054899 -0.978116 18.4692
-0.156977 -0.642296 17.6788
-0.0679038 -0.908114 18.2089
-0.160529 -0.880676 18.119
-1.12752 -1.01742 19.0764
-0.106355 -1.01981 19.2403
0.00592048 -0.816673 17.9888
-0.459605 -0.643057 17.7698
-0.228895 -0.957535 18.9805
-0.249076 -0.987007 19.2215
-1.16753 -0.943475 19.0065
-1.09525 -0.987378 19.4429
-0.169592 -1.50459 23.233
-1.18976 -0.958931 19.28
-0.831051 -0.939261 19.1105
-0.286373 -0.648043 17.8387
-0.142789 -0.650287 17.6915
-0.0321591 -0.95119 19.1978
-0.0273552 -0.837475 18.321
-0.150415 -0.92757 19.1067
-0.261931 -0.650624 17.8779
-1.28823 -0.922286 19.2217
-1.0438 -0.906287 19.1188
-0.131246 -1.53618 24.4202
-0.00100778 -0.825153 18.3658
-1.03538 -0.888208 19.0539
-1.01049 -0.887314 19.0444
-1.01822 -0.88084 19.0336
-0.195801 -0.913608 19.2794
-0.638131 -1.08606 21.054
-0.116408 -0.920191 19.448
-0.0224925 -0.809467 18.3922
-0.180789 -1.06694 21.1387
-0.156928 -0.893094 19.3665
-0.14065 -0.865853 19.088
-1.18163 -1.06177 21.751
-0.992351 -1.16535 23.1164
-0.46299 -0.891291 19.8898
-0.319527 -0.653195 17.9283
-1.18494 -0.887575 20.191
-0.690497 -1.3713 26.6936
-1.33733 -0.8811 20.2239
-0.706891 -1.38402 27.2048
-0.458231 -1.16678 24.1489
-0.153472 -0.798637 19.1332
-1.31009 -1.08827 23.8199
-0.487896 -1.1449 24.9368
-1.38149 -1.10355 24.6465
-0.745166 -1.47391 32.0574
-1.38281 -0.806395 20.1812
-0.0599973 -0.718867 18.2947
-0.341434 -0.653753 18.0284
-1.18829 -0.785809 19.8945
-1.17104 -0.804126 20.2796
-1.49632 -0.890055 22.1268
-0.288153 -0.65516 17.8473
-1.29465 -0.805012 20.4942
-1.32291 -0.900223 22.6161
-1.67249 -0.804149 20.7188
-1.54108 -0.79042 20.3818
-1.16068 -0.813813 20.8913
-0.162441 -0.663885 18.1084
0.0331548 -0.772883 19.8005
-0.0477882 -0.73154 19.0908
-0.106762 -0.681481 17.7692
-1.11031 -0.792179 21.4022
-1.25595 -0.705157 18.9206
-0.323449 -0.663253 18.1042
-0.206673 -0.695085 18.5832
-0.115948 -0.683217 18.1465
-1.13095 -0.702642 19.1845
-0.147144 -0.708522 19.2611
-0.140504 -0.678505 18.0877
-0.133175 -0.67866 18.0926
-0.11641 -0.670739 18.1443
-0.47902 -0.670832 18.4278
-0.4823 -0.666931 18.4179
-0.00252103 -0.885156 17.686
-0.0117512 -0.845952 17.6798
-0.16566 -0.632143 17.4576
-0.087393 -0.743234 17.8021
-0.0433157 -0.702983 17.6232
0.00601776 -0.707423 17.7051
-0.0457534 -0.692474 17.6181
-1.31235 -0.719011 19.1787
-0.446134 -1.26862 28.63
-0.306795 -0.703571 18.9391
-0.0976429 -0.958951 18.1409
-0.507653 -1.20594 19.3317
-0.037103 -0.903962 18.1294
-0.0815008 -0.987243 18.821
-1.15224 -1.00904 19.1739
-1.18316 -0.970932 19.0362
-0.23011 -0.982053 19.1014
-0.262877 -0.973799 19.1196
-0.2362 -0.970205 19.0931
-1.13001 -0.97417 19.2277
-0.142817 -0.814646 18.0879
-0.851968 -0.946417 19.2025
-0.143898 -0.899669 18.7918
-0.0721015 -0.891988 18.728
-0.0565114 -0.833909 18.2895
-0.122274 -1.87254 26.2852
-0.203874 -1.00845 19.7177
-0.533946 -0.939523 19.2964
-0.097576 -1.63244 24.8863
-1.01345 -0.910718 19.147
-1.01633 -0.897744 19.0824
-0.647677 -1.01699 20.1232
-0.180273 -0.89853 19.152
-0.182477 -0.892156 19.1938
-1.17136 -0.855046 18.9833
-0.234756 -1.06284 20.8971
0.27465 -0.879445 19.0807
-0.249272 -1.38417 24.3424
-0.655594 -1.02005 20.7944
-1.0901 -0.940039 20.2564
-1.19939 -1.08227 21.8623
-0.247544 -1.02911 21.5427
0.0197456 -1.10604 22.4522
-1.08564 -0.923043 20.4434
-0.580985 -1.50542 27.7104
-1.06944 -0.902214 20.2807
-1.33217 -1.04821 22.7483
-0.267632 -0.650712 17.8578
-1.18231 -1.0069 22.7382
-0.4423 -1.31192 27.9396
-0.21373 -1.00256 22.7668
-1.33074 -1.11741 25.1561
-0.28878 -0.782837 19.3168
0.245841 -0.945349 22.1769
-0.314164 -0.640178 17.5432
-0.0521601 -0.759252 19.0418
-0.837366 -0.826278 21.9152
-0.158969 -0.710408 18.5605
-0.116488 -0.677311 18.1103
-1.33014 -0.841852 22.8403
-0.0446058 -0.702086 18.4061
-0.119008 -0.704937 18.6295
-0.281369 -0.710823 19.7192
-1.10786 -0.736961 20.1247
-0.126539 -0.722737 19.3936
-0.148682 -0.684149 18.0569
-0.136701 -0.692735 18.4836
-0.146557 -0.924086 19.3267
-0.0753779 -0.678284 14.9073
-0.0719356 -0.547711 14.8472
-0.198278 -0.500316 14.8015
-0.179356 -0.72287 14.9633
-0.176696 -0.718951 14.9495
-0.0763461 -0.667859 14.9186
-0.0754756 -0.652834 14.9258
-0.0407925 -0.631256 14.9785
0.0328834 -0.618418 15.1492
-0.175323 -0.85623 17.3661
-1.20299 -0.678969 16.165
-1.31471 -0.687753 17.8956
-0.19628 -0.536244 14.7534
-0.907166 -0.942793 23.6198
-0.202108 -0.503739 14.9021
-1.18873 -0.983229 17.3888
-0.177484 -0.619291 16.4846
-0.682399 -0.50493 15.2367
0.0538456 -0.62993 15.298
-0.276443 -0.740352 16.7519
-1.19446 -0.610295 16.1809
-1.12142 -0.800912 17.8659
-1.33402 -1.00485 23.5435
0.012823 -0.8789 15.6617
-0.0779379 -0.582102 15.8306
-0.0581912 -0.792106 18.993
-1.21644 -0.629041 16.2644
0.0882335 -0.642641 15.4722
-0.159108 -0.699294 17.6848
0.0697681 -0.635365 15.5586
-1.03662 -0.664241 16.2679
-0.139394 -1.1515 17.1871
-0.97664 -0.546533 15.9727
-0.150795 -0.696615 15.1712
-1.1228 -0.914557 18.4078
-1.23895 -0.645453 16.4574
0.0701555 -0.646792 15.4559
-1.36322 -0.630464 16.8414
-0.192126 -1.05562 20.1172
-0.217921 -0.518706 15.2116
0.0192324 -1.01044 17.3769
-1.11619 -0.936601 18.062
-0.136773 -0.917645 18.6107
-1.0539 -0.907644 16.4225
-1.06513 -0.774932 16.4604
-0.239535 -0.823947 16.8947
-0.308237 -0.582275 16.7449
0.0626599 -1.20963 16.8125
-0.0820072 -0.603799 16.8169
-1.03322 -0.935055 16.4271
-1.29864 -0.800454 18.6774
-1.2118 -0.719118 16.9256
0.0749742 -1.13618 17.4348
0.249613 -1.58725 18.1761
-1.0733 -0.669341 16.9497
0.0801213 -0.652322 16.5672
-1.19914 -0.912793 17.1544
-0.165124 -0.842609 16.995
0.100838 -1.20913 17.6401
-0.0931243 -0.868316 17.0924
-0.145918 -0.551483 16.0502
-0.222607 -0.860581 16.9809
-0.151164 -0.848823 17.1055
-0.210336 -0.61395 16.7716
-0.222551 -0.854047 16.9818
0.00628175 -1.07114 17.3336
0.020072 -0.691132 16.4902
-1.30822 -1.39222 17.883
-0.0704723 -1.15622 17.5842
0.0116123 -0.705712 16.6794
-1.28729 -1.08802 17.6506
0.0157849 -1.26486 17.6703
-0.281555 -0.804781 16.8397
-0.000973842 -0.767384 16.8296
-1.29628 -1.37831 18.1805
0.0159397 -0.760579 16.963
-1.29279 -1.1562 18.0534
-1.25306 -0.662643 18.1518
-0.231482 -0.618327 16.7315
-0.218088 -0.62497 16.7446
-1.04776 -0.623762 17.7853
-1.29563 -1.1726 18.4514
-1.27658 -0.765629 19.0284
-1.28371 -1.28445 19.2395
-1.27971 -1.27966 26.9789
-0.168946 -1.54207 24.5975
-1.18364 -0.956222 19.22
-0.129779 -0.691669 17.6955
-0.323987 -0.657373 17.9497
-0.472778 -0.665954 18.1667
0.0834172 -1.89086 21.1946
-0.210739 -0.668053 18.0915
-0.211166 -0.672368 18.0742
-0.229072 -0.673992 18.035
-0.172908 -0.887764 18.0956
-0.0336279 -0.873193 18.0344
0.00956361 -1.19435 19.5593
-0.213586 -0.987474 18.6853
-0.0765177 -0.97584 18.692
-0.157964 -0.842243 18.0965
-0.206587 -0.678921 18.3696
-0.118343 -0.936879 18.708
-1.96979e-05 -0.998519 19.0492
-0.256768 -0.649225 17.8652
-0.234715 -0.996341 19.1631
-0.0622175 -0.977192 19.0645
-0.0710565 -0.910312 18.6583
-0.150039 -0.812871 18.099
-0.883394 -0.984553 19.2563
-0.25435 -0.965169 19.1837
-0.0521111 -0.928183 18.9231
-0.334822 -0.678812 18.3746
-0.4728 -0.679399 18.4283
-0.271597 -0.692632 18.7783
-0.162432 -0.928868 19.0585
-0.152901 -0.791177 18.0758
-0.15345 -1.62235 24.1246
-0.15803 -0.951503 19.256
-0.197396 -1.10248 20.4118
-0.0348474 -0.898261 18.8919
-0.134387 -0.789065 18.0921
-0.0302786 -0.911046 19.0196
-0.163986 -0.782046 18.0585
-0.0139356 -0.814146 18.2896
-0.167622 -0.938139 19.3964
-0.0214885 -0.799204 18.3049
-0.0326878 -0.767519 18.0382
-0.208763 -1.6813 26.1325
-0.184742 -1.04289 20.6604
-0.277055 -0.651167 17.8496
-0.0579227 -0.836095 18.8651
-0.153521 -0.75837 18.1062
-0.155168 -0.878687 19.3438
-0.155428 -0.893144 19.6097
-0.176373 -0.930192 20.0793
-0.0706297 -0.835715 19.0432
-0.513951 -1.64971 28.2274
-0.509471 -1.56928 27.9078
-0.0481449 -0.763819 18.3546
-0.137238 -0.85201 19.4696
-1.43267 -0.739287 20.1833
-1.43068 -1.30681 25.3332
-1.53654 -1.39956 26.5035
-0.275677 -0.653255 17.9819
-0.480835 -1.35163 25.8275
-0.0487536 -0.845842 19.4563
0.0210314 -0.905888 20.4017
-0.187156 -0.795703 19.0062
-0.254932 -0.795892 19.0777
-0.215542 -0.933405 21.3233
-0.71872 -1.31576 27.6014
-0.254774 -1.12414 24.5199
-0.0337399 -0.751999 18.705
-1.09629 -0.822448 20.1177
-0.263667 -0.843474 20.4341
-0.0933973 -0.775222 21.0642
-1.22745 -0.923108 22.1506
-1.36195 -1.34382 30.0657
-1.2238 -0.851498 20.9752
-1.19574 -0.851715 20.9773
-1.1667 -0.9433 22.7778
-1.19161 -1.16837 27.2095
-1.36287 -0.983954 23.9099
-1.19713 -1.00038 24.2369
-1.18655 -0.804937 20.354
-1.4682 -0.882266 22.057
-1.08844 -0.858855 22.3241
-1.34967 -0.767812 20.1784
-0.159173 -0.701712 18.2658
-1.4863 -0.755524 20.0368
-1.19597 -0.834669 22.3469
-0.0857745 -0.718449 18.8328
-0.164011 -0.690143 18.0701
0.0856652 -1.02054 22.636
-0.051601 -0.892775 17.9997
-1.03543 -0.923004 19.1693
-1.09392 -0.919682 19.215
-0.169091 -0.662439 17.6788
-0.311641 -1.15126 24.1631
-0.156705 -0.893112 18.0585
-0.164882 -0.897212 18.1307
-0.0327491 -0.867517 18.0301
-0.0563139 -1.07747 18.8941
-0.134937 -0.872004 18.1014
-0.129673 -0.869052 18.0971
-0.207481 -1.00687 18.6945
-0.141891 -0.863503 18.0916
-0.194605 -2.4117 24.8559
-0.164937 -1.00082 18.7397
-0.322708 -0.652791 17.9028
-0.127601 -0.963338 18.6449
-0.0412581 -0.944981 18.6792
-0.058865 -0.904944 18.666
-0.131577 -0.969268 19.104
-0.202202 -0.96418 19.106
-0.133502 -0.801893 18.0995
-0.135421 -0.798248 18.0772
-0.197428 -0.979077 19.2872
-0.160504 -0.793418 18.0856
-0.0507284 -0.920908 18.9248
-0.851609 -0.943612 19.203
-0.215838 -1.43842 22.4985
-0.0494251 -0.944928 19.1415
-0.138497 -0.785598 18.097
-0.0369137 -0.815269 18.2958
-0.0101133 -0.815537 18.2953
-0.156802 -0.923883 21.0397
-0.0160511 -0.809483 18.2704
-0.107126 -0.915771 20.915
-0.035941 -0.914989 19.0545
-0.23918 -0.65345 17.8774
-0.161714 -0.950043 19.3939
-0.182729 -1.51283 23.7411
-1.5844 -1.17961 21.391
-0.607808 -1.03424 20.17
-0.0236914 -0.801543 18.3035
-0.236205 -1.02057 20.0828
-0.0319303 -0.790892 18.2394
-0.0271778 -0.795343 18.3357
-0.229201 -1.20193 21.9738
-0.241262 -1.43896 24.2058
-0.145459 -0.910287 19.4484
-0.0427349 -0.878404 19.1526
-0.0249352 -0.79259 18.3801
-0.079718 -0.930982 19.7922
-0.677606 -1.00881 20.6736
-0.164685 -1.05684 21.2886
-0.0688026 -0.835812 18.9967
-0.0204335 -0.776158 18.376
-1.22444 -0.948768 20.3471
-0.69054 -1.08596 21.7496
-0.061105 -0.88683 19.5805
-0.146815 -0.847838 19.2253
-0.0424112 -0.890385 19.6779
-0.039998 -0.792033 18.6085
0.0184627 -0.777948 18.4816
-0.100924 -0.846216 19.3101
-0.167526 -0.782814 18.5891
-1.11425 -1.02266 21.672
-1.10434 -0.925147 20.5812
-0.968308 -1.27326 25.1606
-1.32215 -0.877291 20.1733
-0.675183 -1.2698 25.3366
0.075609 -0.769448 18.6411
-0.800885 -1.33856 27.2191
0.0528232 -0.968145 22.0081
-1.17308 -0.842096 20.2469
-0.302018 -1.17882 25.7116
0.0674835 -0.751249 18.6158
-1.20216 -0.837955 20.2987
-1.27259 -0.874077 20.9272
-1.20137 -0.872453 20.8916
-1.26406 -1.2811 27.9224
-0.345336 -1.14662 25.5121
-0.147392 -0.808784 19.6839
-0.0314474 -0.811209 19.7131
-0.0202929 -0.734097 18.3864
-1.2611 -0.98716 23.1078
-1.36557 -0.818601 20.2198
-1.36397 -0.912648 22.2007
-0.145735 -0.73984 18.7407
-0.0249714 -0.761363 19.1705
-0.0473073 -0.704605 18.0034
-1.29107 -0.809022 20.4502
-1.27116 -0.812166 20.516
-0.256943 -0.878216 22.3609
-0.218724 -0.786491 20.135
-0.00661702 -0.747413 19.163
-1.36263 -0.788569 20.5066
-0.226572 -0.75084 19.3957
-0.141256 -0.694974 18.2482
-0.44167 -0.716451 19.2689
-0.143867 -0.700946 18.5885
-0.381573 -0.70576 18.9886
-0.173734 -0.71504 19.3767
-1.21428 -0.72447 20.2936
-0.15475 -0.697928 18.7577
-0.300748 -0.694861 18.8132
-0.496614 -0.683563 18.5367
-0.156757 -0.677345 18.1198
-0.490224 -0.67152 18.4569
-0.21268 -0.671187 18.1234
-0.19971 -0.671314 18.1597
-0.294631 -0.65563 17.7941
-0.181869 -0.667067 18.1936
-0.148363 -0.667366 18.0768
-0.131394 -0.667347 18.1006
-0.325508 -0.664812 18.1582
0.0269981 -0.663969 18.47
-0.17328 -0.888778 18.0746
-0.169167 -0.894835 18.1292
-0.139794 -0.796583 18.0939
-0.010302 -0.821101 18.4541
0.0148902 -0.715637 18.0738
-0.0494253 -0.768215 19.1616
-0.332031 -0.644766 17.9707
-0.012312 -0.76776 18.3881
-0.312573 -1.16487 25.0545
-0.0605447 -1.07423 18.9346
-0.205181 -0.95519 18.5745
-0.144124 -0.949412 18.7075
-0.14879 -0.822814 18.0957
-0.142391 -0.816473 18.0982
-0.0352269 -0.931846 18.7567
-0.885333 -1.01131 19.3353
-0.231553 -0.992296 19.1528
-0.257948 -0.975242 19.084
-0.183858 -0.983974 19.1244
-0.235926 -0.979662 19.1545
-0.160926 -0.794071 18.0719
-0.269069 -0.646354 17.8697
-0.0826237 -0.90063 18.7364
-0.259282 -0.959931 19.1414
0.0531155 -1.15125 20.276
-0.0446345 -0.947635 19.0401
0.00702496 -0.960747 19.1676
-0.0308563 -0.943608 19.0904
-0.0405821 -0.942126 19.1369
-0.0250457 -0.819091 18.3206
-0.0861306 -1.98835 26.209
-0.0461722 -0.809277 18.2877
-0.0279668 -0.866156 18.6964
-0.157688 -1.57939 23.7794
-0.0383115 -0.807235 18.3037
-0.161942 -0.956233 19.4078
-0.195118 -0.938618 19.319
-0.020022 -0.790885 18.2794
-0.156743 -1.52986 24.3874
-0.219943 -1.03838 20.3697
-0.0929408 -1.05741 20.5087
-0.0237851 -0.800449 18.3944
-0.125431 -1.02369 20.2945
0.023112 -1.02348 20.2727
-0.242395 -1.38279 23.5606
-0.0519428 -0.839316 18.8324
-0.107322 -1.05214 20.8842
0.0440423 -1.01989 20.5631
-0.265556 -1.26646 23.025
-1.23597 -0.949797 20.3501
-0.124436 -0.800618 18.697
0.00128038 -0.819388 18.9141
-0.111711 -0.878133 19.7464
-0.0325227 -0.748209 18.221
-1.22099 -0.910301 20.3745
-1.21679 -0.911236 20.3851
-0.135093 -0.832157 19.2678
-1.38575 -0.894324 20.2901
-1.29244 -0.886605 20.18
-1.1037 -0.919976 20.6571
-0.0947093 -0.835116 19.4796
-1.16487 -1.09421 23.2374
-0.20518 -0.951201 21.1398
-0.103911 -0.876068 20.1049
-0.147861 -0.808416 19.1955
-1.12338 -0.900214 20.7079
-1.39096 -1.0748 23.1988
-1.333 -1.21354 25.1324
-0.302417 -1.1278 23.757
-1.13921 -0.858169 20.2147
-0.054137 -0.931251 21.0874
-1.23126 -1.02919 23.1039
-1.30724 -1.40802 29.4734
-1.34838 -0.829976 20.2263
-1.17454 -0.826069 20.128
-1.19528 -0.835437 20.2898
-1.43732 -1.0168 23.9138
-1.53574 -0.889233 21.7826
-1.27648 -1.04392 24.6994
-0.175218 -0.761832 19.0644
-0.0132853 -0.803602 19.8335
-0.334915 -0.653163 18.0618
-1.3463 -0.964277 23.4617
-1.34185 -1.05143 25.2146
-0.232529 -1.13687 26.7049
-0.128794 -1.01565 24.5941
0.103981 -0.738417 18.6815
-1.2646 -0.959004 24.3376
-0.229937 -0.648453 17.8753
-1.16491 -0.858476 22.2173
-0.182066 -0.73284 18.849
-0.0205427 -0.739101 19.0697
-1.33556 -0.764038 20.2313
-0.766889 -0.830243 21.9641
-0.753585 -0.829662 21.9442
-0.0245546 -0.710772 18.3832
-1.2915 -0.779218 20.8838
-1.2594 -0.887537 24.1745
-0.147897 -0.705377 18.3267
-0.0734147 -0.697897 18.0788
-1.10947 -0.777311 21.0395
-0.119807 -0.713003 18.6446
0.12535 -0.811362 22.6457
-0.152703 -0.703661 18.5292
-0.149952 -0.698248 18.3169
-0.304215 -0.708861 18.9254
-0.183666 -0.729042 19.7535
-0.136104 -0.6988 18.4335
-0.26399 -0.705758 18.9387
-0.217484 -0.696688 18.485
-0.118668 -0.700529 18.6325
-0.337277 -0.693901 18.6984
-0.211454 -0.694487 18.6766
-0.165148 -0.695542 18.7211
-0.187675 -0.683224 18.2109
-0.164325 -0.680346 18.0924
-0.115324 -0.677318 18.1164
-0.329646 -0.674586 18.3668
0.0134552 -0.660312 18.335
-0.144935 -1.56513 24.7544
-0.157271 -0.888972 18.1361
-0.0679311 -0.910512 20.969
-0.802477 -1.28419 19.6932
-0.200093 -0.981842 18.6362
-0.111979 -0.965839 18.6518
-0.0948039 -0.959722 18.6481
-0.124849 -0.95236 18.6317
-0.103246 -0.923957 18.6371
-0.0522254 -0.99139 19.012
-0.197216 -0.984749 19.1441
-0.239559 -0.975318 19.139
-0.260306 -0.971578 19.1416
-0.255871 -0.972583 19.1468
-0.113742 -0.971852 19.1997
-0.258493 -0.950645 19.1813
-0.032501 -0.919886 18.9756
-0.159069 -0.914486 18.9739
-0.122712 -0.937739 19.1654
-0.089513 -0.788285 18.2055
-0.195561 -1.35506 22.37
-0.193469 -0.927322 19.2973
-0.0498991 -0.87258 18.8934
-0.608309 -1.04632 20.2292
-0.0350666 -0.849276 18.7466
-0.667608 -1.04499 20.2717
-0.333722 -1.10386 20.8652
-0.220831 -1.0112 20.286
-0.199591 -1.02218 20.4348
-1.22178 -0.995486 20.4543
-0.121031 -1.09537 21.4577
-1.03191 -0.943885 20.1405
-0.0900616 -1.00936 20.7902
0.0382581 -0.780378 18.5061
-0.0791315 -1.069 21.4774
-0.171617 -0.943857 20.2771
-0.247022 -1.03011 21.2769
-0.065464 -1.04095 21.3814
-0.0507406 -0.824838 19.0665
-1.09134 -0.91564 20.1713
-1.43078 -1.66359 28.4133
-0.108786 -0.956515 21.025
-1.20635 -1.00447 21.8246
-1.00753 -1.00711 21.9861
0.0134686 -0.74908 18.4484
-0.174476 -1.12001 23.6632
-0.0455259 -0.765015 18.7059
-1.44468 -1.13294 24.1305
-1.29499 -1.0837 23.412
-2.96239 -1.53959 30.9967
-0.20923 -0.903607 20.9984
-0.52831 -1.28474 27.2882
-1.14726 -1.04078 23.6212
-0.308874 -1.17667 25.8602
-0.0577985 -0.74606 18.6324
-1.41488 -0.847125 20.5042
-1.29916 -0.930841 21.9611
-1.26003 -0.842009 21.3503
-1.23778 -0.868869 22.5296
-0.169428 -0.725129 18.8117
-1.30898 -0.80636 21.3599
0.304062 -1.14854 24.7712
-1.14475 -0.73856 20.2901
-0.185413 -0.708488 18.912
-0.618564 -0.747536 21.1451
-0.257158 -0.706501 18.9811
-0.512143 -0.708832 19.3168
-0.266787 -0.697912 18.8686
-0.227862 -0.691185 18.5734
-0.207517 -0.682807 18.4124
-0.218354 -0.680252 18.1934
-0.249934 -0.922852 22.1666
0.110397 -0.969951 22.5825
-0.141432 -0.813265 18.0759
-0.0546094 -1.01958 18.7727
0.0153515 -0.971678 20.3389
-0.0703588 -0.94614 18.6614
-0.108048 -0.929975 18.6294
-0.100701 -0.959267 18.7743
-0.226381 -0.92423 18.6685
-1.70503 -1.92839 36.3646
-0.22865 -0.91053 18.6193
-0.23125 -0.923563 18.7373
-0.104702 -0.906254 18.658
-0.0707602 -0.900583 18.6284
-0.0649945 -1.04124 19.3746
-0.885679 -1.00194 19.304
-0.0554021 -0.953296 19.0416
-0.201418 -0.958757 19.1213
-0.134038 -0.972486 19.1913
-0.0851095 -0.790198 18.2123
-0.0496077 -0.854228 18.6476
-0.0226751 -0.909119 19.003
-0.153869 -0.842673 18.63
-0.281189 -0.922475 19.1758
-0.278157 -0.918134 19.1473
-0.258751 -0.91399 19.1428
-0.169711 -0.959714 19.4391
-0.0395433 -0.874005 18.8824
-0.185277 -0.928133 19.3127
-0.0848092 -0.807956 18.4693
-0.0674284 -0.927951 19.332
-0.220919 -1.04944 20.2477
-0.19289 -0.929822 19.3845
-0.14946 -0.829019 18.6558
-0.64638 -1.04607 20.2998
-0.123954 -0.95669 19.6078
-0.137213 -0.905816 19.2361
-0.0622832 -0.843038 18.7708
-0.214245 -1.04518 20.4108
-0.193693 -1.0427 20.3902
0.0880072 -1.10418 20.9083
-0.215419 -1.05108 20.5668
-0.170431 -0.897797 19.3319
-0.32871 -1.03627 20.6303
-0.116885 -1.06358 20.9174
-0.190183 -1.02191 20.6224
-0.0443341 -0.79711 18.6581
-0.029424 -0.79164 18.6063
-0.902296 -1.0493 21.1346
-0.155995 -0.837836 19.1474
-0.148335 -0.84105 19.1789
-0.0358029 -0.805433 18.8171
-0.792027 -1.18635 23.3407
-0.0332385 -0.791686 18.8279
-1.23149 -1.14733 23.0693
-0.154245 -0.823328 19.2375
-0.0568695 -0.78584 18.7956
-0.961236 -0.872195 19.979
-0.31223 -1.19708 23.9538
0.0139016 -1.13533 23.1752
-0.0641222 -0.945518 20.8373
0.0883345 -0.924785 20.6652
-0.191525 -0.299075 22.1516
-0.156092 -0.525261 20.8529
0.00347164 -1.0026 21.7873
-0.148128 -0.793414 19.1481
-0.0413765 -0.819308 19.5059
-0.34773 -1.2063 25.1934
-1.40756 -1.25104 26.1824
-0.0574667 -0.911376 21.0269
-0.157331 -0.782999 19.1035
-1.13587 -0.856155 20.3375
-0.273526 -1.14464 24.7975
-0.0698742 -0.869173 20.4986
-0.0528944 -0.792571 19.3711
-1.30007 -1.04068 23.6639
-1.17578 -0.831517 20.2398
-1.29413 -0.880026 21.095
-0.168084 -0.780604 19.3146
-1.33259 -1.07796 24.8721
-1.14883 -0.853012 20.8847
-1.27283 -1.19533 27.4503
-0.147491 -0.758267 19.1892
-1.16782 -0.80446 20.3151
-1.38694 -0.878161 21.9578
-0.15509 -0.829284 20.854
-1.29967 -0.809387 20.5794
-0.181437 -0.746657 19.0955
-0.279223 -0.944452 24.1131
-1.14588 -0.854856 22.1494
-0.796222 -1.03122 26.8252
-1.28582 -0.795372 20.7665
-0.989596 -0.915107 24.1592
-1.11705 -0.83435 22.1762
-0.160144 -0.704798 18.2583
-1.3823 -0.824968 22.2138
-0.230823 -0.751466 20.0269
-0.520756 -0.726399 19.4294
-0.234759 -0.713506 19.2278
-0.182609 -0.697549 18.6378
-0.174252 -0.697327 18.623
-0.124204 -0.695047 18.6491
-0.0974202 -0.689864 18.1962
-0.146978 -0.689701 18.3219
-0.167028 -0.672893 18.2098
-0.177285 -0.726406 19.6646
0.137233 -1.00078 25.5154
-0.0281045 -0.824455 18.274
-0.0294651 -0.78913 18.2664
0.099392 -0.795367 19.2158
-0.0597782 -1.00876 18.6903
-0.0667499 -1.01138 18.7144
-0.197051 -0.976178 18.6358
-0.0426354 -0.944229 18.5198
-0.0544611 -1.00746 18.7411
-0.471935 -0.991887 18.8694
-0.146049 -0.93955 18.6915
-0.0826472 -0.992504 18.9179
-0.244738 -0.925997 18.6736
-0.0898462 -0.908463 18.6174
-0.192307 -0.97496 19.0996
-0.854937 -0.972412 19.2041
-0.252427 -0.96408 19.1172
0.0518847 -0.99706 19.2628
-0.146788 -0.958872 19.1178
-0.268269 -0.96509 19.1776
-0.0421478 -0.827143 18.4821
-0.166877 -0.672239 18.2627
-0.04653 -0.845851 18.6681
-0.138563 -0.995114 19.6216
-0.0854769 -0.841157 18.6562
-0.188031 -0.928659 19.2328
-0.275132 -0.939971 19.3351
-0.247851 -0.930369 19.2961
-0.170942 -0.942672 19.426
-0.655508 -1.05827 20.2794
-0.180446 -1.05306 20.2994
-0.105506 -0.792772 18.4455
0.0728157 -1.0946 20.6294
-0.0713333 -0.858417 18.931
0.101132 -1.1003 20.7219
-0.109563 -0.0853882 20.1763
-0.0825941 -1.97084 27.6681
-0.618031 -1.0037 20.2311
-0.11226 -1.04087 20.4963
-0.291389 -1.30531 22.7945
0.093067 -1.56821 24.9374
-0.217064 0.442524 22.4101
-0.0590108 -0.907856 19.6244
-1.2248 -0.970524 20.3413
0.096111 -1.02107 20.8053
-0.0495223 -0.823171 19.0553
-0.212635 -0.671995 18.3406
-0.0620668 -0.843868 19.3021
-0.0353542 -0.82323 19.089
-0.0669023 -0.791209 18.7886
-1.09273 -0.913371 20.1793
-0.432549 -1.25753 24.2079
-0.0412947 -0.786278 18.8217
-1.12392 -1.21158 23.877
-0.111669 -0.919652 20.4193
-0.0224568 -0.765648 18.6112
-1.05296 -0.901437 20.3107
-1.07474 -0.924055 20.5842
-1.18455 -1.01652 21.7031
-0.545593 -1.15244 23.3205
-0.043416 -0.795239 19.0346
-1.13182 -0.878238 20.2465
0.078184 -0.883269 20.2798
-0.20222 -0.664448 18.1832
-0.156288 -0.674449 18.4335
-0.0413058 -0.733397 18.3447
-0.045885 -0.784278 19.1109
-1.35394 -1.48146 30.1869
-0.4273 -1.39796 28.863
-0.0459243 -0.776276 19.0926
-1.43243 -1.10309 24.7688
-0.828397 -1.2291 26.9065
-0.0866748 -0.855632 20.5559
0.247351 -0.906931 21.4256
-1.1215 -0.828329 20.196
-1.38331 -0.906548 21.5822
-1.1318 -0.8233 20.2095
-1.40527 -1.00581 23.5861
-0.0436843 -0.747706 18.8136
-1.12283 -0.846317 20.7675
-1.36114 -0.897122 21.7497
-1.29672 -1.20336 27.6812
-0.474099 -1.2269 28.1434
-0.366051 -1.17989 27.6985
-0.26093 -1.04952 25.0516
-0.041615 -0.746372 18.8962
-0.385626 -1.32895 32.134
-0.278404 -1.02497 25.2931
-0.0190369 -0.789903 20.0075
-0.991021 -0.862453 21.8351
-1.3297 -0.810374 20.7521
-1.17238 -0.815892 20.8979
-1.27107 -0.8859 22.6613
-0.25613 -0.799454 20.5205
0.139872 -0.994366 25.4578
-0.170953 -0.796809 20.6352
-0.166886 -0.716259 18.5842
-1.00946 -0.797735 21.2979
-0.282858 -0.777178 20.6759
-0.17536 -0.713119 18.5494
-0.154515 -0.705563 18.2993
-0.227935 -0.75516 20.1415
-0.130858 -0.708327 18.6132
-0.250561 -0.719734 19.2596
-0.233962 -0.721427 19.3456
-0.164204 -0.730966 19.826
-0.441712 -0.71275 19.037
-0.279786 -0.709546 18.8935
-0.516264 -0.713462 19.2646
-0.272488 -0.701351 18.9247
-0.20824 -0.697959 18.637
-0.267406 -0.69822 18.9009
-0.175079 -0.695535 18.6335
-0.17905 -0.693264 18.6237
-0.18222 -0.679292 18.489
-0.235848 -0.971149 18.6516
-0.118769 -0.926843 18.6224
-0.163597 -0.675694 18.2411
-0.0993796 -1.04418 19.1631
-0.0657788 -0.906313 18.6317
-0.0812097 -1.05012 19.2535
0.0949708 -0.930719 18.7704
-0.0969492 -1.0013 19.0942
-0.136635 -0.969657 19.0541
-0.213828 -0.967173 19.0632
-0.193004 -1.01529 20.566
-0.061456 -0.936481 18.9351
-0.26811 -0.965192 19.1802
-0.105538 -0.814269 18.4157
-0.0272026 -0.922106 19.0028
-0.137165 -0.920593 19.0519
-0.209844 -0.907165 19
-0.24033 -0.928127 19.1743
-0.141311 -0.939267 19.231
-0.0521012 -0.837926 18.6863
-0.10498 -0.917568 19.2008
-0.0564565 -0.888516 19.0158
-0.0468482 -0.875669 18.9349
-0.0347394 -0.792323 18.414
-0.241979 -0.986705 19.6709
-0.0523925 -0.862945 18.9244
-0.195714 -1.05187 20.3528
-0.0703411 -0.911832 19.3503
-0.114686 -0.799002 18.6245
-0.049769 -0.933523 19.6988
-0.194077 -0.996794 20.256
-1.08357 -0.954285 20.0615
-0.133617 -1.04085 20.7202
-0.666333 -0.976499 20.3181
-1.06307 -0.95446 20.2016
-0.232664 -0.928726 19.9152
-1.19612 -0.933594 20.3385
-0.0412651 -0.792859 18.8237
-1.18019 -1.44865 26.0141
-1.09344 -1.44457 25.9649
-0.0360976 -0.787807 18.8228
-0.0681702 -0.820001 19.2473
-0.0525936 -0.785889 18.8889
-0.161722 -0.795445 19.0418
-0.769192 -0.818493 19.3978
-1.22626 -1.10336 22.9505
-0.158848 -0.7965 19.0918
-1.12116 -0.98755 21.6217
0.0497153 -0.901435 20.4597
-0.033978 -0.780202 18.9168
-0.502209 -1.40901 27.2572
-0.0405603 -0.770617 18.8268
-0.156157 -0.679596 18.2954
-0.234899 -1.03893 22.8497
-1.18526 -0.838828 20.2264
-0.462228 -1.40386 29.8552
-0.272287 -1.1404 25.3897
-1.15496 -0.832249 20.3065
-0.0345256 -0.728091 18.4584
-0.0702808 -0.721385 18.336
-1.30591 -1.00728 23.9078
-1.25655 -0.875549 21.5353
-1.04346 -0.893599 22.0994
-1.47899 -1.45693 34.9467
-0.311316 -1.02145 25.1763
-0.151008 -1.05324 23.054
-0.139947 -0.827281 21.1917
-1.45913 -0.904815 23.4806
-1.19534 -1.00502 26.1562
-0.161254 -0.740847 19.1016
-0.0315268 -0.728196 18.8308
-0.16772 -0.713139 18.556
-0.497125 -0.733875 19.4272
-0.157734 -0.711565 18.5661
-0.753949 -0.745895 20.3603
-0.359678 -0.719894 19.3054
-0.236594 -0.717646 19.4063
-0.18306 -0.71354 19.1541
-0.158731 -0.703964 18.5521
-0.506665 -0.711772 19.2056
-0.167086 -0.707258 18.9311
-0.149346 -0.697917 18.2381
-0.160882 -0.700339 18.5513
-0.222988 -0.700202 18.7242
-0.203895 -0.697491 18.653
-0.346349 -0.691799 18.7803
-0.344274 -0.689695 18.7166
0.0237476 -0.754617 15.8208
0.0330633 -0.710442 15.8148
0.02391 -0.685334 15.8666
-1.24549 -0.741821 16.8923
-0.00963065 -0.713543 17.7169
0.0232838 -0.582693 15.845
0.0267642 -0.573719 15.8361
-0.935082 -0.831183 16.4672
-0.0687872 -0.580063 15.8782
-0.0569936 -0.566068 15.8453
-0.0494902 -0.568173 15.8322
0.124715 -1.18308 16.9369
-0.0788657 -0.576947 15.8517
-1.18799 -0.893179 17.0273
-1.22478 -0.882029 17.1198
-0.249299 -0.800586 16.7561
0.0370437 -0.685264 16.0378
0.0275942 -0.682137 16.0352
-0.119168 -0.66453 16.8886
-0.0111224 -0.851309 16.7721
0.0983331 -0.740452 16.3789
0.132392 -0.73844 16.4766
-1.19263 -0.756248 19.556
-1.0655 -0.731167 16.9482
-1.06025 -0.698594 16.9644
0.108335 -0.69937 16.6411
0.0764418 -0.687507 16.5522
-0.0412138 -1.26037 17.6895
0.123164 -0.948141 16.5198
0.124919 -0.941807 16.5255
0.125125 -0.926964 16.5118
-0.0762115 -1.00748 16.9768
0.142311 -0.903586 16.5269
0.139861 -0.686337 16.5258
0.134388 -0.676944 16.6704
0.164715 -0.966003 16.6755
0.00393963 -0.909768 16.6842
0.0138953 -0.770169 16.5031
-0.203134 -0.807775 16.8717
0.00977718 -0.745454 16.6596
-0.958317 -0.767807 17.001
-0.282573 -0.576558 16.3513
0.0153449 -0.745338 16.7794
0.00955144 -0.724373 16.7018
0.0123905 -0.770562 16.7658
0.0148184 -0.690267 16.7033
0.0173779 -0.852849 16.7247
0.0114691 -0.838565 16.7177
-1.2962 -1.36847 18.0238
-0.0109874 -0.723264 17.1396
-1.30871 -1.26465 17.8499
-1.61323 -1.78151 36.8181
0.00607402 -0.709331 16.7788
0.105998 -1.12745 17.6205
-0.108759 -0.931239 16.9187
0.00248076 -0.832247 16.7926
-1.23576 -0.664582 18.3281
0.117935 -1.05561 17.4547
-1.12358 -0.865063 17.7227
-0.00132781 -0.78398 16.9654
-1.28431 -1.21405 18.8568
-0.318649 -0.603193 17.0075
-0.0100905 -0.712907 17.0718
-0.293411 -0.805394 16.8647
-1.29124 -1.08083 18.1342
-0.242489 -0.784538 16.879
-1.14859 -0.906832 20.4646
-1.30076 -1.09589 18.2232
-1.25585 -1.04155 18.2793
-1.10128 -0.989264 18.0675
-1.10501 -0.99081 18.1876
-0.157041 -0.737998 19.0551
-1.28905 -1.00256 19.2689
-1.15464 -1.03195 19.1446
-1.28522 -0.904294 19.4749
-0.542991 -1.27597 25.1115
-1.29154 -0.838634 20.4772
-1.27749 -0.812294 20.481
-0.107345 -0.933555 18.6239
-0.0242936 -0.79839 18.4277
-0.033014 -0.733924 18.4633
0.0225279 -0.732603 18.5082
-0.15083 -0.679115 18.3122
-0.37894 -1.12561 27.8673
-0.045096 -0.94932 18.7773
-0.0577392 -0.997086 18.9578
-0.0886973 -1.04943 19.2055
-0.167168 -1.00547 19.0812
-0.064658 -1.07263 19.3923
-0.23794 -0.978586 19.1503
-0.201619 -0.967478 19.1001
-0.198168 -0.968609 19.1048
-0.0430099 -0.931057 18.9436
-0.0234189 -0.931858 18.9459
-0.254784 -0.963534 19.1235
-0.116536 -0.957346 19.1003
-0.195911 -0.964795 19.1656
-0.134593 -0.932368 19.0632
-0.12686 -0.954947 19.2017
-0.339028 -0.686023 18.6765
-0.106205 -0.795325 18.442
-0.0979895 -0.79865 18.459
-0.0953203 -0.798584 18.4585
-0.066196 -0.8074 18.5034
-0.098804 -0.911118 19.0654
-0.0468159 -0.840754 18.7081
-0.0831173 -0.834235 18.7054
-0.0292348 -0.96472 19.4674
-0.0530086 -0.888973 19.0311
-0.0848645 -0.854309 18.8722
-0.0526985 -0.861651 18.9298
-0.158117 -0.875222 19.0681
-0.203487 -0.929135 19.4383
-0.20188 -1.0705 20.3958
-0.156739 -0.867986 19.0566
-0.0528337 -0.849423 18.9298
-0.0348669 -0.79883 18.595
-0.124852 -1.05425 20.3235
-0.15591 -0.866221 19.063
0.219234 -1.83304 25.6619
-0.183546 -0.894319 19.2744
-0.0620321 -0.947811 19.6346
-0.19935 -1.03527 20.3149
-0.0406799 -0.794065 18.6079
-0.173939 -0.668509 18.466
-0.160854 -0.882714 19.2602
-0.041259 -0.792196 18.6065
-0.155988 -0.885645 19.3049
-0.0452379 -0.851763 19.0537
-0.0353253 -0.788433 18.6031
-0.0732997 -1.12665 21.3652
-0.0582238 -0.865235 19.2718
-1.13283 -0.968829 20.216
-0.0559538 -0.880973 19.4572
-0.0425713 -0.804773 18.8223
-0.181308 -0.863446 19.3428
-0.0352404 -0.93346 19.9343
-0.155912 -0.830659 19.1121
-0.0294205 -0.817976 19.0713
-0.0470254 -0.771335 18.6466
-0.0433923 -0.838832 19.3337
-1.23095 -1.52121 26.3143
-1.01825 -0.901236 20.1142
-0.0602043 -0.823798 19.2826
-1.75835 -1.19226 23.3633
-0.162541 -0.802523 19.0855
-1.48307 -1.48399 26.7936
-1.47782 -1.44551 26.5916
-0.157288 -0.757502 18.6489
-0.076625 -0.897734 20.391
-1.54573 -1.4369 27.261
-0.555665 -1.41826 27.0386
-0.240105 -0.978136 21.4802
-0.140224 -0.89963 20.4893
0.0395745 -0.861514 20.01
0.0566627 -0.784519 19.0371
-0.474801 -1.57583 29.3785
-0.148039 -1.10587 23.4308
-1.19571 -1.10511 23.5789
0.0729987 -0.860754 20.2115
-0.211126 -0.685838 18.7185
-0.0589645 -0.807243 19.575
-0.0376276 -0.759058 18.8575
-0.22159 -0.837305 20.0953
-0.0553131 -0.913107 21.2736
-0.741209 -0.687658 19.1627
-1.35617 -1.06021 23.9364
-0.179069 -0.962655 22.365
-0.00538793 -0.812421 19.8641
-1.33762 -0.893433 21.2816
-1.15685 -0.868361 20.8553
-1.31663 -1.32448 28.7843
-0.172894 -0.769435 19.1885
0.0902562 -0.829248 20.2441
-0.0369944 -0.74824 18.8272
-1.51781 -0.940611 22.2688
-1.40634 -0.88554 21.4228
-1.17912 -0.856283 20.883
-1.36682 -1.33514 29.9651
-1.2375 -0.984908 23.5752
-1.08398 -0.989478 23.6781
-0.248233 -0.750853 18.9938
0.0583211 -0.820226 20.3985
-1.59761 -1.01661 24.4853
-1.27216 -1.02521 24.6932
-0.203506 -0.8026 20.1327
-1.26708 -1.13568 27.4777
-1.33277 -0.882426 22.1124
-1.35292 -1.00224 24.8949
-0.521732 -0.692326 18.7554
-1.38169 -1.09778 27.649
-0.0822984 -0.803444 20.559
-1.21151 -0.921871 23.6729
-0.830059 -0.956917 24.641
-0.0359622 -0.730233 18.8156
-1.19966 -0.834049 22.1551
-1.39896 -0.92238 24.9668
1.00768 -1.03271 28.9784
-1.2922 -0.804031 21.4325
-3.05231 -1.22762 35.8708
-1.17258 -0.78203 20.9328
-1.17674 -0.803219 21.7408
-1.1366 -0.810986 22.047
-0.222248 -0.754099 20.0954
-0.21614 -0.716056 18.6446
-0.198085 -0.690435 18.8452
-0.559304 -0.69463 18.7503
-0.16309 -0.718954 19.0873
-0.179028 -0.715478 18.8983
-0.192333 -0.715528 19.0361
-0.189845 -0.709262 18.6592
-0.16317 -0.707189 18.5458
-0.195832 -0.718181 19.4088
-0.253322 -0.71035 19.0076
-0.223337 -0.705828 18.8253
-0.16841 -0.706118 18.903
-0.223755 -0.699684 18.4175
-0.315817 -0.700512 18.9686
-0.310601 -0.700475 18.972
-0.133923 -0.694879 18.603
-0.350229 -0.694378 18.783
-0.168209 -0.691955 18.9235
-0.0983404 -0.905332 18.5975
-0.100437 -0.918681 18.6775
-0.0319146 -0.80866 18.6024
-0.0331782 -0.788207 18.5965
-0.49602 -0.715052 18.5743
-0.0533934 -0.803077 18.6152
0.0612297 -1.17009 23.271
-0.0919221 -0.884164 18.6325
-0.254396 -0.988289 19.1448
-0.220938 -0.979195 19.1174
-0.215821 -0.969265 19.1097
-0.168735 -0.966324 19.1175
-0.261795 -0.955124 19.1094
-0.205564 -0.963104 19.1659
-0.0226809 -0.942895 19.0658
-0.199456 -0.96838 19.2021
-0.258359 -0.9482 19.1266
-0.136044 -0.691114 18.5879
-0.249772 -0.932045 19.1271
-0.255063 -0.933017 19.2185
-0.0845695 -0.914771 19.1146
-0.147248 -0.918257 19.1506
-1.05897 -2.05737 38.841
-0.195138 -0.924412 19.3415
-0.148767 -0.921515 19.3829
-0.636116 -1.02897 20.1744
-0.114731 -0.958166 19.6898
0.228143 -1.93463 26.2443
-0.0476013 -0.846655 18.9847
-0.222804 -1.04626 20.3882
-0.249796 -1.17064 25.5086
0.07672 -0.952125 25.5188
-0.174999 -0.88313 19.3016
-0.0598639 -0.789714 18.6295
-0.4011 -1.07309 20.7632
0.0621402 -0.987616 20.1966
0.029662 -0.999519 20.3782
-0.0381917 -0.80232 18.8047
-0.302807 -1.00988 20.5166
-0.0297251 -0.882258 19.5017
-1.10463 -0.962059 20.2276
-0.0756098 -1.19935 22.2214
-0.627095 -0.985987 20.4721
-0.17104 -1.0139 20.7066
-0.149153 -0.814425 19.122
0.0666018 -0.910861 20.1264
-0.347322 -0.692309 18.7923
-0.256587 -1.01449 21.7224
-1.14423 -1.36311 26.0769
-0.0194641 -0.842831 19.7383
0.132688 -0.859535 19.9452
0.0486942 -0.782634 19.0039
-1.17557 -1.01013 21.874
-0.0719611 -0.947725 21.1115
-1.27886 -1.1407 23.8658
-0.183841 -0.919368 20.9303
-0.0227989 -0.830744 19.7469
-0.159524 -0.779396 19.0902
-0.236622 -0.931797 21.3092
-0.165604 -0.982627 22.1849
0.0742722 -0.772574 19.0774
-0.424946 -1.43471 29.2868
-0.200093 -0.838946 20.1272
-0.170769 -0.770098 19.0688
0.0095459 -0.826783 19.9499
0.023794 -0.828304 19.9739
-0.156118 -0.742284 18.6414
-0.780668 -1.28358 27.286
-0.0523469 -0.77668 19.2218
-1.38497 -1.01375 23.1345
-0.156383 -0.694543 18.5526
0.0265409 -0.817492 20.127
-0.0490453 -0.748928 18.8826
-1.34588 -1.32346 29.6747
-0.181682 -0.758769 19.1518
-1.52936 -0.887341 21.7508
0.0686502 -0.750495 19.0621
-1.45943 -0.873377 21.6439
-1.50502 -0.956105 23.4488
-0.105027 -0.80744 20.3468
-0.163584 -0.746231 19.0015
-0.263332 -0.947654 23.6971
-0.224224 -0.696455 18.8567
-0.26243 -0.698534 19.0045
-1.18043 -0.826274 20.9441
-0.0363671 -0.7327 18.8064
-1.50678 -0.889815 22.7259
-1.29763 -0.804058 20.6904
-0.0212945 -0.72771 18.8384
-0.564852 -0.757333 19.8852
-0.284173 -0.778903 20.6957
-0.222893 -0.751723 20.1224
-0.174212 -0.721046 18.8616
-2.02404 -1.24105 27.2388
-0.162751 -0.712247 18.5557
-0.187535 -0.710125 18.6777
-0.161453 -0.708067 18.5495
-0.356506 -0.711816 19.0483
-0.190164 -0.710682 19.075
-0.163193 -0.705439 18.5543
-0.353064 -0.708806 18.9817
-0.167652 -0.703057 18.6142
-0.354725 -0.704483 19.1219
-0.351135 -0.704571 19.1714
-0.308432 -0.703738 18.9875
0.0507516 -0.775608 19.0172
-0.260769 -0.892773 20.8017
-0.23671 -0.980459 19.112
-0.220873 -0.975944 19.1132
-0.179574 -0.967571 19.128
-0.130475 -0.979136 19.1831
-0.170853 -0.999071 19.3493
-0.302649 -0.70158 18.9482
-0.263787 -1.28695 20.637
-0.128929 -0.932069 19.1264
-0.0484473 -0.86961 18.8661
-0.0866608 -0.847278 18.777
-0.230952 -0.913642 19.1363
-0.078445 -0.899062 19.0619
-0.16666 -0.924259 19.3074
-0.217443 -0.89982 19.2172
-0.212298 -0.684897 18.7147
0.00948215 -1.02634 20.2199
0.0327712 -1.00675 20.1236
0.211524 -1.82479 25.7506
-0.0617191 -0.811572 18.8345
-0.343496 -0.873312 19.3406
-0.20488 -1.01508 20.4005
-0.187765 -1.04384 20.6615
-0.0372741 -0.798558 18.8196
-0.0735921 -0.832634 19.1007
-0.665711 -0.985624 20.3257
-0.169747 -1.15988 21.743
-0.188436 -1.00027 20.6609
-0.121108 -0.838966 19.2609
-0.168462 -0.990928 20.8093
-0.59648 -0.943855 20.388
-0.02359 -1.10723 22.1075
-0.0564889 -0.826583 19.3424
-0.161927 -0.798562 19.0989
-0.0446735 -0.767948 18.7799
-0.0565437 -1.01714 21.636
-1.18118 -0.950702 20.8571
0.104426 -0.875735 20.2944
-0.145382 -0.881709 20.7506
0.0373578 -0.8516 20.0409
-0.0372467 -0.758217 18.8331
-0.193514 -0.97622 22.0183
-0.201701 -0.914785 21.1283
-1.3376 -1.23729 25.906
-1.12273 -0.87771 20.7326
-0.0448735 -0.767182 19.1244
0.787389 -2.9096 55.331
0.0478788 -0.90518 21.5032
-1.51019 -0.915835 21.545
-1.33611 -0.972117 22.5635
-1.30605 -1.09858 24.785
-1.30659 -0.932651 22.218
-1.50587 -1.00235 24.0488
-1.58626 -0.888451 21.8112
-1.28556 -0.863336 22.4806
-1.15482 -0.829448 22.0731
-0.747357 -0.814496 21.7322
-0.158029 -0.69116 18.5587
-0.219473 -0.72896 18.9419
-1.54391 -0.812215 21.5673
-1.10331 -0.817815 22.0128
-0.296393 -0.815055 22.3234
-0.181569 -0.691951 18.5896
-0.451993 -0.74275 19.741
-1.16361 -0.781256 21.4932
-1.07663 -0.74086 20.155
-0.59564 -0.706903 19.3872
0.0193239 -0.859 18.8153
-0.269663 -1.04581 23.938
-0.227807 -0.986574 19.1168
-0.0704219 -1.06257 19.3687
-0.242615 -0.978348 19.1121
-0.0616966 -1.01656 19.2401
-0.110451 -1.00074 19.2492
-0.131215 -0.979867 19.1912
-0.123146 -0.964554 19.1341
-0.12635 -0.968806 19.1588
-0.0421799 -0.949073 19.0919
-0.0532384 -0.854616 19.349
-0.0631181 -0.943902 19.1251
-0.143599 -0.959654 19.1989
-0.26562 -0.768466 19.5229
-0.349573 -0.688535 18.7554
-0.260219 -0.926173 19.1097
-0.185258 -0.944243 19.2073
-0.202536 -0.949629 19.2533
-0.124513 -0.911426 19.1459
-0.115361 -0.906253 19.155
-0.0759594 -0.887844 19.0864
-0.162563 -0.937914 19.367
-0.080729 -0.879442 19.0771
-0.246756 -0.892179 19.1543
-0.232521 -0.903002 19.2251
-0.213132 -0.901928 19.2331
-0.202217 -0.920469 19.334
-0.194007 -0.914246 19.3623
-0.138369 -0.787856 18.6583
-0.0579535 -0.816414 18.831
-0.21054 -1.08191 20.4831
0.0428528 -1.01737 20.1508
-0.17168 -0.904351 19.5084
-0.169096 -0.876017 19.3167
-0.173401 -0.888614 19.4221
-0.619857 -1.00312 20.2619
-0.113394 -0.82411 19.0081
-0.26993 -1.02892 20.5404
-0.218717 -0.944261 19.9187
-0.1751 -0.859773 19.3181
-0.10627 -1.23761 22.2303
-0.0383564 -0.786885 18.8123
-0.946522 -0.935792 19.9789
-0.223241 -1.02087 20.7078
-0.157882 -0.81937 19.1176
-0.162363 -0.844777 19.3552
-0.0518391 -0.816593 19.12
-0.0353483 -0.785505 18.9157
-0.0455285 -1.02331 21.2127
-0.158561 -0.826209 19.3134
-0.0542794 -0.798742 19.0583
-0.177299 -0.942553 20.4809
-0.121911 -1.02036 21.2494
-0.0087925 -0.877957 19.8608
-1.17585 -1.04951 21.5247
0.0213919 -0.874515 19.9568
-0.547573 -1.59049 27.967
-1.21212 -1.02226 21.6603
-1.19873 -1.03544 21.8125
-1.5826 -1.4859 26.9256
-0.0527147 -0.958231 21.1369
-1.44743 -1.2732 25.0688
-0.154219 -0.873297 20.3068
-0.0494289 -0.760627 18.8935
-0.274975 -1.0263 22.5285
-0.0634834 -0.907232 20.9263
0.0156291 -0.932864 21.2895
-1.27608 -1.06653 23.0933
-0.0462817 -0.754153 18.8516
-0.208017 -0.832041 19.9935
-1.80154 -1.06935 23.401
-0.277906 -0.959541 21.9895
-1.24869 -1.05125 23.409
-1.56388 -1.76568 34.6464
-0.166548 -0.766139 19.0971
-1.46926 -0.930721 21.59
-3.76606 -1.68904 33.6154
-1.33336 -0.972778 22.4738
-1.27532 -0.984996 22.6946
-1.29281 -0.952752 22.306
0.234482 -0.820137 20.2649
-1.41862 -0.884693 21.1897
0.173838 -1.03285 24.3139
-0.168367 -0.757596 19.1021
-1.17112 -0.871012 21.1193
-0.0494702 -0.765636 19.3312
-0.16114 -0.761608 19.2773
0.0248948 -0.79784 20.0676
-1.29814 -0.88241 21.628
-1.56062 -1.39733 32.6588
-1.5039 -1.40592 32.8595
-1.53546 -1.07228 27.0191
-0.0845691 -0.799774 20.5482
-1.23292 -0.836107 21.2739
-1.15422 -0.847901 22.1323
-0.0471853 -0.734439 19.0549
-1.08793 -0.789343 20.6955
-1.31002 -0.822918 21.8187
-1.34174 -0.833093 22.1777
-0.6496 -0.793315 21.0706
-0.0536066 -0.737682 19.3283
-0.770086 -0.777805 21.239
-0.298689 -0.764858 20.9354
-0.181219 -0.735681 19.743
-0.187377 -0.713561 18.6749
-0.174347 -0.710449 18.8917
-0.516508 -0.711928 19.2652
-0.253138 -0.706011 19.0353
-0.309268 -0.705029 19.0165
-0.310811 -0.703344 18.9861
-0.188969 -0.700128 18.9188
-0.161 -0.687628 18.9715
-0.347711 -0.690797 18.7667
-0.0683339 -0.862548 19.0806
-0.354113 -0.695685 18.8566
-0.163788 -0.70491 18.5597
-0.0606451 -0.967198 19.0183
-0.15089 -0.787017 18.6406
-0.0374453 -0.788694 18.8165
-0.166786 -0.687335 18.5966
-0.16388 -0.713244 18.5651
-0.163898 -0.71018 18.5632
-0.168675 -0.702869 18.554
-0.16778 -0.702852 18.5542
-1.3087 -1.98449 41.7087
-0.177763 -0.689673 18.7107
-0.0531635 -0.949029 18.9794
-0.0566518 -0.958045 19.0252
-0.191647 -0.972248 19.1285
-0.0551865 -0.950903 19.0662
-0.181827 -0.967614 19.1344
-0.0354347 -0.915731 19.0615
-0.200418 -0.954976 19.2613
-0.180287 -0.947832 19.2312
-0.153787 -0.963323 19.2952
-0.0371338 -0.918529 19.1064
-0.11348 -0.907545 19.079
-0.184241 -0.674917 18.8206
-0.222386 -0.719141 19.1227
-0.0375025 -0.895386 19.0426
-0.139682 -0.94746 19.2812
-0.0793892 -0.893362 19.0515
-0.175504 -0.701842 18.7141
-0.23769 -0.707255 19.0369
-0.181071 -0.709829 18.7012
-0.112753 -0.902843 19.2842
-0.0637064 -0.914948 19.3496
-0.175233 -0.912803 19.3832
-0.0834868 -0.852607 19.0543
-0.0840375 -0.889216 19.293
0.0544728 -1.04509 20.2991
-0.202587 -1.02684 20.2764
0.172567 -1.54873 23.6385
-0.223686 -1.04103 20.4357
-0.588863 -1.02791 20.3791
-0.177016 -0.867472 19.3173
-0.04143 -0.827816 19.0466
-0.399473 -1.06993 20.7459
0.1063 -1.5901 24.5986
-0.329075 -0.996983 20.3432
-0.199682 -0.712518 19.0485
-0.269576 -0.99348 20.3946
-0.129925 -1.22083 22.1307
-0.103754 -0.844733 19.2638
-0.049145 -0.825338 19.117
-1.04299 -0.957937 20.142
-0.0833099 -0.836988 19.2233
-0.0489604 -0.815534 19.0574
-0.246664 -1.07529 21.1247
-0.0285498 -1.31957 23.0634
-0.00203348 -1.32286 23.0901
-0.159127 -1.00827 20.9595
-0.0467603 -0.79783 19.0584
-0.916569 -0.903981 20.056
-0.161638 -0.800651 19.0995
-0.058426 -0.825285 19.3393
0.027868 -1.23589 23.3883
-0.156349 -0.751469 18.6385
-0.0372571 -0.770643 18.8314
0.0659385 -0.880711 19.9541
0.0225154 -0.873367 19.9621
-1.12385 -0.934585 20.6051
-0.0375423 -0.764871 18.831
-1.19358 -0.945926 20.8566
-1.05788 -1.37729 25.7851
-0.17672 -0.89984 20.3944
-0.146133 -0.91927 20.6179
-0.0884857 -0.87202 20.1348
-0.0518826 -0.799194 19.283
-1.30918 -0.933188 20.8429
-0.273997 -1.23933 24.6107
-0.13722 -0.886074 20.4869
-0.16099 -0.783217 19.1666
-0.162989 -0.779729 19.1217
-1.17753 -1.06595 22.8514
-0.12075 -0.87975 20.4762
-0.150766 -0.867056 20.3737
-0.175189 -0.781753 19.2061
-0.169901 -0.865597 20.4239
-0.0362543 -0.752984 18.8452
-1.35892 -1.0891 23.6529
0.00465928 -0.973035 22.0896
-0.175151 -0.768848 19.085
-0.485764 -0.72602 19.6253
-1.38286 -1.09385 23.9173
-1.32733 -1.11568 24.2542
-1.15458 -1.13304 24.5356
-0.648896 -1.33081 27.5873
-0.276928 -1.09125 23.9938
0.0471019 -0.951293 21.9054
0.104257 -0.835985 20.163
-1.11046 -0.876479 20.7387
-1.02895 -0.96741 22.179
-0.177721 -0.71618 19.0567
0.184742 -1.04121 24.4162
-1.34753 -1.12808 26.5455
-1.28909 -0.871999 21.6641
-1.33997 -1.06515 26.021
-1.32322 -0.866653 21.7222
-1.26028 -0.88451 22.1619
-1.13739 -1.10467 27.4508
-0.962465 -1.24039 30.7314
-0.234268 -0.781307 19.9026
-0.169484 -0.753666 19.2549
-1.31783 -0.861165 21.7921
-1.28669 -1.02318 25.9099
-1.12175 -1.00492 25.4827
-0.251603 -0.784154 20.0721
-1.29164 -0.829119 21.1584
-1.28819 -0.934945 24.0194
-0.287659 -0.719996 19.5195
-1.32037 -0.823894 21.958
-0.174384 -0.719074 18.9641
-0.278914 -0.751513 21.2616
-0.217223 -0.721001 19.1048
-0.157157 -0.74253 18.6395
-0.0666629 -1.06878 19.3713
-0.144565 -0.986618 19.1668
-0.264824 -0.947843 19.1258
-0.0399354 -0.923321 19.04
-0.139559 -0.957677 19.2241
-0.0252183 -0.894038 19.0076
-0.167915 -0.952429 19.2373
-0.273906 -0.914705 19.1011
-0.201744 -0.941897 19.2053
-0.029557 -0.886367 18.9971
-0.0352201 -0.898924 19.0597
-0.0494414 -0.885748 19.1131
-0.0517582 -0.885116 19.1189
-0.16027 -0.916742 19.297
-0.196297 -0.917315 19.3108
-0.0640384 -0.91917 19.357
-0.182784 -0.914151 19.3429
-0.183416 -1.06479 20.4156
-0.128737 -0.802583 18.8688
0.0725741 -0.989148 20.0451
-0.0483572 -0.834217 19.0876
-0.227454 -1.03124 20.3925
0.121514 -1.555 24.1941
