# .PCD v.6 - Point Cloud Data file format
FIELDS x y z
SIZE 4 4 4
TYPE F F F
COUNT 1 1 1
WIDTH 1719
HEIGHT 1
#VIEWPOINT 0 0 0 1 0 0 0
POINTS 1719
DATA ascii
0.0142147 -0.110678 4.35425
-0.738337 -0.223295 8.79563
-0.672474 -0.177275 7.16492
-0.115749 -0.189513 7.78982
-0.223189 -0.174055 7.58925
-0.0323808 -0.0616136 4.13772
-0.844998 -0.12818 5.5772
-0.722487 -0.109184 5.33149
-0.0845697 -0.0983415 5.10146
-0.0841133 -0.0972155 4.98799
-0.0484332 -0.0959074 4.87302
-0.942366 -0.732324 15.8034
-0.10572 -0.0945788 4.94256
-0.750525 -0.0841159 5.07349
-0.142512 -0.0901086 4.93155
-0.081661 -0.0902024 4.99423
-0.673126 -0.0868089 5.33389
-0.583721 -0.398888 12.2136
-0.522112 -0.238483 9.4446
0.124565 -0.258789 4.08558
-0.469761 -0.289864 4.34607
-0.462406 -0.269268 4.31206
-0.476615 -0.268803 4.31637
0.148126 -0.14685 4.08236
0.132611 -0.127822 4.04331
-0.712217 -0.183375 5.763
-1.43943 -1.15477 31.9627
0.173105 -0.575446 5.22647
-0.583008 -0.280244 10.8106
-0.286379 -0.053757 3.93967
0.409262 -0.514771 5.04062
-0.113552 -0.0587473 3.94097
-0.218575 -0.273912 4.1198
0.269803 -0.503178 5.14286
0.228948 -0.497263 5.13696
0.240226 -0.499495 5.14693
0.124715 -0.492025 5.12342
0.0859881 -0.495296 5.14824
0.101231 -0.493231 5.13902
-0.113732 -0.0599587 3.93024
0.102975 -0.489891 5.13436
0.0624982 -0.493306 5.17081
0.263107 -0.441554 4.96379
0.237143 -0.473071 5.13163
0.247859 -0.432788 4.96175
0.0304864 -0.48764 5.24507
0.271737 -0.413383 4.88847
0.0362858 -0.487421 5.25586
0.121552 -0.247964 4.09534
0.058804 -0.47256 5.20711
0.25745 -0.409917 4.93089
0.138063 -0.439504 5.08937
0.145271 -0.44386 5.12283
0.24873 -0.410893 4.95651
-0.116914 -0.0599428 3.93094
-0.0500064 -0.475285 5.33238
0.0772058 -0.442847 5.17688
-0.469611 -0.286303 4.36174
-0.00270148 -0.465466 5.30781
0.232359 -0.406463 4.99876
0.0796181 -0.438225 5.17734
-0.464302 -0.277768 4.33732
0.266918 -0.394968 4.97161
-1.0007 -1.21509 9.44947
0.0589645 -0.430255 5.18507
-0.132104 -0.0599095 3.93312
-0.727415 -0.502738 5.58966
-0.137307 -0.0591544 3.9535
-0.0302955 -0.456944 5.37211
-0.716852 -0.490826 5.57112
0.0323632 -0.457439 5.40463
0.349428 -0.376127 4.94884
-0.0195224 -0.427867 5.27955
0.0813695 -0.406777 5.17245
-0.463305 -0.262416 4.34615
0.27497 -0.378375 5.03457
0.271955 -0.347137 4.874
-0.729662 -0.474326 5.64249
-0.0668506 -0.424439 5.37942
-0.00201067 -0.256326 4.35301
-0.0918347 -0.430574 5.46642
-0.724857 -0.446725 5.57928
-0.680463 -0.447606 5.58526
-0.00881377 -0.427724 5.4836
0.00720292 -0.248262 4.35222
0.00872497 -0.206613 4.08557
-0.700079 -0.44052 5.59463
-0.0378909 -0.427445 5.51683
0.297149 -0.35237 5.03559
0.0243855 -0.402405 5.40697
-0.0983016 -0.392653 5.39322
-0.0828141 -0.387304 5.37474
-0.749293 -0.557389 6.55886
-0.773575 -0.617754 6.97514
-1.58095 -0.695197 7.53695
-0.847399 -0.416128 5.62302
-0.759115 -0.533015 6.44481
0.0749206 -0.361484 5.25002
0.361777 -0.337823 5.08721
0.416659 -0.342287 5.11919
-1.58975 -0.686047 7.54697
0.0775564 -0.350314 5.20517
-0.853154 -0.407385 5.62268
-0.844055 -0.406917 5.6405
0.0114527 -0.192432 4.09009
-0.155546 -0.360413 5.32906
-0.034714 -0.339321 5.17566
0.0083942 -0.230134 4.38425
-0.0934987 -0.360216 5.36642
-1.58671 -0.660232 7.63237
-0.775021 -0.509319 6.50319
-0.0918938 -0.349487 5.30496
-0.744126 -0.390675 5.62946
-0.715687 -0.383696 5.59853
0.0656643 -0.363472 5.45345
0.142088 -0.295636 4.94816
-1.62443 -0.630627 7.56929
-0.656224 -0.375349 5.57894
-0.699859 -0.494143 6.51086
-0.185529 -0.319777 5.1493
-0.283082 -0.313611 5.11739
-0.250818 -0.31324 5.11491
-0.216251 -0.312633 5.11059
-0.207183 -0.312815 5.11216
-0.307032 -0.312664 5.12768
0.159933 -0.199933 4.23176
-0.189561 -0.310551 5.13082
0.0556467 -0.322324 5.22966
-0.714336 -0.365789 5.59306
-0.0826547 -0.339769 5.38991
0.0739205 -0.31839 5.21756
0.0291525 -0.214321 4.36652
0.0136575 -0.21369 4.37212
0.113208 -0.198526 4.24844
-0.721054 -0.465521 6.47273
-0.155868 -0.310509 5.18838
-0.848921 -0.360399 5.61799
-0.680355 -0.47206 6.56193
-0.830364 -0.35415 5.61435
-0.7082 -0.49372 6.85657
-0.742477 -0.349157 5.62277
0.0139122 -0.173564 4.09884
-0.31415 -0.28765 5.12892
0.134674 -0.184858 4.22204
-0.168027 -0.302057 5.30635
-0.0612376 -0.286705 5.16692
0.135271 -0.216355 4.52273
-0.0688794 -0.282391 5.1484
-0.0541181 -0.284488 5.16819
-0.92419 -0.587218 8.02717
0.0148843 -0.197472 4.37146
-0.714756 -0.327656 5.63992
-0.970729 -0.463483 6.94605
0.123495 -0.177081 4.20269
0.017522 -0.161189 4.08533
-1.27966 -0.497431 7.52235
-0.000366925 -0.278736 5.35561
0.0572475 -0.268461 5.24853
-0.856072 -0.452011 7.21558
-0.929189 -0.599622 8.79124
-0.885836 -0.419194 6.9125
-1.44149 -1.07864 14.0419
-1.15252 -1.03611 13.5879
-1.10172 -1.00059 13.2043
-0.362044 -0.437634 7.12413
-0.238048 -0.47561 7.53824
-0.0665707 -0.0522159 3.85466
-0.699315 -0.251372 5.12385
-0.680686 -0.252622 5.13801
-1.45527 -1.10362 14.6189
0.0175751 -0.153334 4.08575
-0.791215 -0.426949 7.2105
-1.41924 -1.55038 20.0601
-0.187259 -0.412159 7.05597
-0.327841 -0.429116 7.30409
-0.0410708 -0.301305 5.86368
0.1663 -0.187704 4.52966
0.120971 -0.160733 4.21052
-1.22936 -0.463737 7.81485
-1.3171 -0.94918 13.7784
-0.00604016 -0.238834 5.18375
-0.182864 -0.0599284 3.93699
-0.225471 -0.399457 7.24935
-0.940369 -0.438313 7.78669
-1.43681 -1.17302 17.1248
-0.993822 -0.410608 7.49933
-1.10807 -0.351066 6.78212
-1.14371 -0.365719 6.97373
-1.04857 -0.409851 7.5568
-0.0803845 -0.310214 6.27531
-1.14859 -0.363709 7.00807
-0.24101 -0.44266 8.09088
-0.088562 -0.302543 6.22235
-1.39442 -0.407608 7.66034
-1.21244 -0.40685 7.65564
-1.39751 -0.891574 14.2402
-1.33721 -0.861708 13.836
-1.54809 -0.398991 7.61164
-0.990997 -0.354347 7.01171
-0.709149 -0.299932 6.26795
-1.32877 -1.02883 16.33
0.142964 -0.171831 4.523
-0.723378 -0.294899 6.30173
-0.0407171 -0.263756 5.87801
-0.687512 -0.205978 5.09309
-2.47661 -2.01143 31.8617
-0.0615742 -0.284379 6.27979
0.0289334 -0.217894 5.33277
-0.907984 -0.372864 7.73019
-0.00235544 -0.227507 5.56313
0.13222 -0.144789 4.26619
0.0597489 -0.20263 5.2509
-0.804776 -0.222834 5.59526
-0.157386 -0.33124 7.43459
0.114801 -0.196889 5.19799
-1.15449 -0.301017 7.04573
-0.804139 -0.332016 7.60171
0.160334 -0.153065 4.51787
-1.2399 -0.304015 7.1791
-0.00191371 -0.186809 5.14051
-0.948185 -0.428954 9.5617
-1.32082 -0.280051 6.90873
-0.880395 -0.383317 8.99144
-0.701283 -0.440375 10.0915
-0.957658 -0.755455 16.4221
0.0579757 -0.182134 5.23269
0.0738951 -0.161426 4.82753
-1.08793 -0.304616 7.6857
-0.690683 -0.195151 5.68548
-0.265551 -0.243345 6.75627
-0.184178 -0.260482 7.13323
0.13283 -0.127901 4.26866
-0.863399 -0.279657 7.63066
-0.10306 -0.246767 6.93862
0.124342 -0.126362 4.28875
-1.07055 -0.225973 6.60389
-1.17236 -0.252156 7.21751
-0.244841 -0.0537694 4.13236
-0.918676 -0.261912 7.72571
0.119601 -0.119582 4.2414
0.0390371 -0.168764 5.66796
0.0185726 -0.112505 4.10321
-0.969245 -0.222846 7.23456
-1.13339 -0.57945 17.4885
-0.874708 -0.159998 5.51187
-0.903824 -0.203697 6.95103
-0.219885 -0.253753 8.55996
-0.201983 -0.232191 7.89246
-0.871142 -0.274299 9.38021
-1.04922 -0.197526 7.03753
-0.0313487 -0.17271 6.29374
0.0153141 -0.114683 4.3459
-0.8282 -0.214182 8.01436
-0.429965 -0.146749 5.57643
-0.770251 -0.250859 9.36735
-0.836733 -0.298224 11.1007
0.0592374 -0.137204 5.27396
0.303219 -0.134314 5.1918
-0.580874 -0.143443 5.5432
-0.74047 -0.222908 8.5865
-0.740911 -0.224509 8.64813
-0.834317 -0.296484 11.4099
-0.702461 -0.13375 5.60024
-0.0208933 -0.121338 5.09706
-0.219882 -0.169828 7.64394
0.145749 -0.102262 4.26671
0.120296 -0.101415 4.28284
0.14481 -0.101068 4.26776
-0.16104 -0.0589375 4.09234
-0.0983704 -0.114988 5.25044
-0.00651865 -0.060592 4.05434
-0.489259 -0.114206 5.28935
-0.460797 -0.112606 5.18587
-0.73093 -0.110693 5.35362
-0.813039 -0.111081 5.6024
-0.412987 -0.106254 5.26456
-0.0587586 -0.0935149 4.30742
-0.421846 -0.0994748 5.04093
-0.0845302 -0.0967494 5.09894
-0.68848 -0.100951 5.89496
-0.15342 -0.0926468 5.14349
-0.660286 -0.0915467 5.0689
-0.564381 -0.0924804 5.42196
-0.160057 -0.090294 5.12535
0.120473 -0.0860475 4.12379
-0.414643 -0.0890729 5.27548
-0.0659913 -0.0874154 4.97909
-0.472283 -0.0843187 5.20935
-0.31366 -0.0839488 4.92163
-0.583321 -0.0823447 5.15315
-0.623073 -0.0735253 5.10297
-0.0601942 -0.0766817 4.36921
-0.223704 -0.0748005 4.50046
-0.0357891 -0.0764701 4.21581
-0.277331 -0.0735208 4.49353
-0.243039 -0.0737886 4.45275
-0.234664 -0.0734436 4.48792
-0.283367 -0.0722733 4.47141
-0.156756 -0.0716958 4.49035
-0.144769 -0.0716338 4.49285
-0.165048 -0.0704741 4.46921
-0.189308 -0.0692754 4.45419
-0.121153 -0.0692263 4.34039
-0.075747 -0.0670989 4.38493
-0.0545444 -0.0680013 4.24473
-0.0983713 -0.0639063 4.41521
-0.0339435 -0.0666386 4.18864
-0.00927484 -0.0664637 4.13869
0.00128516 -0.0656889 4.12429
-0.0638157 -0.061552 4.26882
-0.054125 -0.0625528 4.17567
-0.0418402 -0.0610871 4.1886
-0.169422 -0.05861 4.1367
-0.0314102 -0.0609611 4.1502
-0.028426 -0.061744 4.12045
0.0122642 -0.0647376 4.00318
-0.0177464 -0.0612723 4.0992
0.0113969 -0.320064 4.09751
0.0142083 -0.318659 4.10882
-0.504378 -0.267416 4.31055
0.130045 -0.228952 5.13676
-0.190929 -0.0662144 3.52423
0.000623677 -0.308 4.07672
0.230822 0.16143 4.25025
0.122828 -0.259658 4.09472
-0.470041 -0.287311 4.34583
-0.482372 -0.277803 4.33143
-0.480664 -0.26847 4.30922
-0.473019 -0.271675 4.32824
0.0225416 -0.263394 4.35675
-0.470261 -0.247179 4.35041
-0.758461 -0.382589 5.96574
-0.723389 -0.262988 5.15387
-0.684802 -0.261249 5.16311
0.12148 -0.155718 4.21976
0.143221 -0.14249 4.07259
0.217682 -0.145656 4.2263
-0.766137 -0.200213 5.07348
-0.767455 -0.197434 5.1044
-0.768372 -0.194837 5.10015
-0.824383 -0.200172 5.47686
-0.981674 -0.277801 7.64033
0.134745 -0.126642 4.27512
-0.850275 -0.164535 5.58793
-0.163831 -0.247586 9.32443
-0.726813 -0.0820739 5.01024
-0.100323 -0.0706615 4.1783
-0.299523 -0.0530983 3.98023
-0.113801 -0.0590532 3.94065
-0.133237 -0.0594922 3.95935
0.246965 -0.435448 4.97081
0.150875 -0.443332 5.13916
0.0352361 -0.0637568 3.97659
-0.467814 -0.276517 4.35687
-0.0234477 -0.0500561 3.90869
0.310058 -0.369322 4.95776
0.0359348 -0.261002 4.35999
0.0361157 -0.259784 4.36135
0.00976014 -0.252334 4.35879
-0.0948398 -0.356772 5.33685
0.0374139 -0.395781 5.7904
-0.031224 -0.0600461 4.15334
-0.0505711 -0.0587609 4.2137
0.14229 -0.189692 4.22099
0.131938 -0.184851 4.2104
0.141296 -0.21719 4.55156
-0.0312987 -0.0612364 4.15251
0.123159 -0.170912 4.22114
-0.0667673 -0.052461 3.86121
0.130883 -0.148344 4.12154
-0.711041 -0.193479 5.79924
0.15477 -0.135263 4.51361
-0.782392 -0.205906 6.9796
-0.478545 -0.155821 5.87909
-0.846591 -0.160515 6.12013
-1.06745 -0.12362 5.98802
-0.505386 -0.0963684 5.35607
-0.509629 -0.0937567 5.36458
-0.692641 -0.0863534 4.98799
-0.227275 -0.0739771 4.49818
-0.266715 -0.0741377 4.50482
-0.276512 -0.0741843 4.50547
-0.220421 -0.0755704 4.4931
-0.611838 -0.0743542 5.0859
-1.65905 -1.75131 10.0176
0.129718 -0.568477 5.23861
0.206648 -0.552552 5.19398
0.223878 -0.533281 5.16455
0.11178 -0.526354 5.15425
0.235482 -0.527499 5.16077
0.092646 -0.546267 5.25172
0.0744164 -0.535708 5.24983
-0.0605711 -0.0768087 4.38162
0.140875 -0.497301 5.10004
0.115392 -0.496271 5.10574
0.191826 -0.496874 5.12035
0.237012 -0.499325 5.14321
0.28944 -0.505845 5.20837
0.0567044 -0.494286 5.19739
-0.220428 -0.0739758 4.49309
0.0208241 -0.494267 5.22082
0.205437 -0.472129 5.11617
-0.147435 -0.058839 4.09057
0.337453 -0.452047 5.02071
-0.19089 -0.0596063 4.07068
0.0892697 -0.468183 5.13015
-0.263574 -0.0840181 4.81577
0.0303573 -0.487059 5.24765
0.0526946 -0.481117 5.2697
0.138728 -0.45055 5.13893
-0.0338026 -0.481278 5.30941
-0.610972 -0.0861053 5.20641
0.0587455 -0.439308 5.16803
-0.159506 -0.0600083 4.09008
0.00796571 -0.467054 5.39242
-0.174719 -0.0601621 4.08727
0.0867504 -0.419691 5.15416
-0.763044 -0.524579 5.75577
0.0175262 -0.0637836 3.97956
-0.715981 -0.483285 5.56951
-0.151086 -0.0906822 5.0894
-1.24909 -1.30383 10.4981
-0.0152051 -0.430085 5.31686
0.0476321 -0.412694 5.21345
-0.308019 -0.0731298 4.45652
-0.0156923 -0.0610738 4.10506
-0.704103 -0.464392 5.61724
-0.110329 -0.425357 5.38436
0.047615 -0.428943 5.41053
-0.767349 -0.458127 5.59502
-0.0308004 -0.413217 5.32622
-0.28608 -0.0729286 4.46739
0.0493057 -0.395966 5.23442
-0.10062 -0.0956779 5.16985
-0.70486 -0.449078 5.59552
-0.779733 -0.443265 5.57506
-0.0443305 -0.422991 5.47799
-0.0811091 -0.0979381 5.15963
-0.167531 -0.101755 5.56704
-0.0679916 -0.409718 5.44491
-0.0211445 -0.0608396 4.11651
-0.76427 -0.618849 6.94238
-0.749874 -0.560637 6.56628
-0.785447 -0.424276 5.64952
-0.745019 -0.574885 6.72822
0.00898258 -0.201598 4.08532
0.0758313 -0.352656 5.19562
-0.837206 -0.40512 5.61822
-0.758396 -0.522666 6.50095
-0.834183 -0.509066 6.48871
-0.770828 -0.507713 6.48016
-0.429073 -0.138403 5.24475
-0.0252988 -0.335277 5.17325
-0.0231845 -0.331947 5.16645
-0.753253 -0.394395 5.65418
0.0294893 -0.363381 5.43426
-0.309275 -0.317211 5.07939
0.0694402 -0.36156 5.44307
-1.66363 -0.64002 7.64362
-0.291362 -0.322597 5.14178
-0.277676 -0.323858 5.15232
-0.217047 -0.324397 5.15854
-0.0366549 -0.319108 5.14108
-0.256252 -0.315563 5.12473
-0.227292 -0.315169 5.12243
0.078158 -0.322889 5.19539
-0.297839 -0.314317 5.13278
-0.20565 -0.312565 5.1213
0.0322101 -0.349476 5.43413
-1.58429 -0.599531 7.4925
-0.145935 -0.309991 5.14176
-0.833992 -0.312555 11.233
-0.698448 -0.495613 6.76483
-0.752579 -0.353212 5.56032
-0.701838 -0.461503 6.50603
-0.320196 -0.300445 5.11544
-0.727892 -0.466074 6.58159
-0.825691 -0.350114 5.6088
-0.541993 -0.115587 5.37892
0.0268393 -0.206327 4.37004
0.0315677 -0.205416 4.36182
-0.464895 -0.115085 5.20069
-0.313075 -0.286153 5.11516
-0.559042 -0.124091 5.39639
-0.885981 -0.526726 7.48656
-0.0681771 -0.281616 5.14981
-0.154536 -0.0720397 4.49279
-0.937437 -0.603416 8.3498
-0.151135 -0.30965 5.52934
0.0207133 -0.0645737 3.98634
-1.31921 -0.505442 7.5794
-0.968195 -0.449613 7.01281
0.0588267 -0.277399 5.26265
-0.972208 -0.479512 7.43406
0.0122014 -0.0640859 4.01085
-0.898246 -0.578404 8.56731
0.00654606 -0.285519 5.43168
-1.56946 -0.468524 7.40128
-0.847275 -0.131783 5.57761
-1.2798 -0.466939 7.39733
-0.258576 -0.445568 7.20985
-0.708658 -0.255217 5.12178
-1.60954 -1.08484 14.3296
-0.0940623 -0.155631 6.55912
-1.60719 -0.473447 7.57316
-1.45577 -1.09136 14.5679
0.137243 -0.19556 4.51476
-1.25051 -1.11044 14.9596
-0.0568627 -0.364755 6.46467
0.014602 -0.157835 4.09468
-0.328477 -0.433266 7.29574
0.0568338 -0.255073 5.2412
-0.252857 -0.200436 8.55385
-1.30892 -0.97063 13.6524
-0.425988 -0.44677 7.51053
0.0147821 -0.254534 5.26262
-1.01597 -0.392717 6.95241
-0.0605642 -0.0625395 4.21453
0.159526 -0.182066 4.48947
-0.858612 -0.440068 7.74342
-1.07069 -0.422162 7.64431
-0.98241 -0.413582 7.53638
-0.997997 -0.426016 7.69928
-0.0871936 -0.318228 6.33194
-1.06063 -0.413075 7.59725
-1.36803 -1.09419 16.7021
-0.244616 -0.441546 8.02663
-0.0742083 0.328622 7.8747
0.000824357 -0.0650255 4.12763
-0.652488 -0.255621 10.1763
-0.736237 -0.215998 8.54729
-0.0101826 -0.0658314 4.15106
-1.4144 -0.892754 14.5719
-0.426815 -0.531241 9.53492
0.00655808 -0.217984 5.17856
0.139938 -0.171564 4.5206
-1.47493 -0.883301 14.8449
-0.318308 -0.347626 7.08866
-0.140888 -0.380148 7.82886
0.029569 -0.217704 5.32777
0.0599287 -0.212518 5.24966
-0.0678941 -0.0622395 4.38377
-0.938544 -0.385018 7.94004
-0.0247614 -0.0665967 4.18209
-0.41267 -0.0651631 4.40702
-0.410349 -0.0638375 4.60344
-0.770164 -0.344323 7.56734
-0.0527772 -0.0684564 4.23623
-1.13686 -0.309468 7.03484
-0.770797 -0.339125 7.57139
-0.267655 -0.313107 7.16501
-0.164686 -0.316118 7.3124
-0.0461235 -0.225828 5.74146
-0.178648 -0.205531 7.98931
-0.898717 -0.400881 9.12522
-0.0130584 -0.184145 5.14098
0.0310083 -0.195077 5.3496
0.233621 -0.175029 5.03414
-0.324931 -0.068989 4.30553
-1.00738 -0.794843 17.1502
-0.740615 -0.225201 8.64475
0.0593132 -0.18172 5.24449
-1.02877 -0.617279 15.1215
-0.710182 -0.195929 5.78147
-0.711643 -0.196824 5.80195
-0.12812 -0.0685372 4.37167
-0.11502 -0.0699269 4.37029
-0.887423 -0.174274 6.64514
0.208354 -0.128959 5.01055
-0.719976 -0.211621 6.41913
0.130695 -0.120512 4.2531
-1.20455 -1.0386 28.8651
0.1368 -0.148129 5.03334
-0.196297 -0.0693552 4.46541
-0.951785 -0.219657 7.22664
-1.16018 -0.573105 17.798
-0.165193 -0.0706599 4.47549
-0.823235 -0.162392 5.61739
0.0241451 -0.112347 4.364
-0.200382 -0.219643 7.85707
0.0608611 -0.13735 5.29393
-0.788255 -0.23742 8.58877
-0.780001 -0.260358 9.39983
0.0516205 -0.474584 5.23666
0.00723994 -0.214309 4.07819
0.0106161 -0.190589 4.08561
0.0316418 -0.204441 4.36283
0.209715 -0.26594 5.15436
0.0184126 -0.223602 5.30761
0.0162298 -0.134063 4.09836
-0.0637557 -0.0722105 4.38714
-10.6124 11.4691 47.276
0.182851 -0.567047 5.20066
0.0185974 -0.231358 4.11013
0.0757727 -0.443402 5.16092
0.0206993 -0.392489 5.3438
0.108175 -0.192449 4.2596
-0.698282 -0.262239 5.12404
0.120624 -0.138721 4.28264
-1.03385 -0.665099 13.0179
0.387802 -1.65527 9.32265
0.232744 -0.545151 5.19834
0.229378 -0.533485 5.16219
0.148254 -0.496136 5.12437
0.203618 -0.497765 5.12949
0.220103 -0.497539 5.12812
-0.886356 -0.362538 11.7988
0.0945701 -0.496437 5.14404
0.117056 -0.495366 5.13903
0.0984868 -0.493818 5.14175
0.119363 -0.49025 5.12646
0.0736393 -0.498739 5.18037
0.0438652 -0.477041 5.14298
0.165512 -0.466161 5.09273
0.0775055 -0.470354 5.15864
-0.93196 -0.396436 12.8219
-0.391647 -0.831266 6.8816
0.225762 -0.446995 5.1535
0.0750094 -0.451647 5.19
-0.871254 -0.575058 18.1737
0.00304836 -0.0675513 4.05411
-0.00137482 -0.463756 5.30391
0.100618 -0.42123 5.15483
-0.157985 -0.0574138 4.08556
-0.739955 -0.501553 5.62894
0.0553837 -0.449684 5.41109
-0.980462 -1.36771 10.9305
-0.709599 -0.426447 5.48618
-0.671895 -0.450669 5.62757
0.29901 -0.330045 4.88368
-0.164577 -0.0577983 4.1089
-1.06042 5.80914 41.6179
-0.698193 -0.435995 5.68847
-0.843369 -0.414253 5.62413
0.364845 -0.343524 5.11888
-0.110076 -0.0697754 4.33353
-0.843791 -0.411769 5.62544
-0.546458 -0.432918 5.7722
-0.0700789 -0.400809 5.54181
-0.852595 -0.406688 5.62765
-0.761162 -0.527017 6.42783
-0.706906 -0.396309 5.58809
-0.0345679 -0.342879 5.19972
0.369811 -0.330443 5.12814
-0.30787 -0.312315 5.05618
0.0137326 -0.214626 4.35684
0.0124893 -0.177142 4.09335
-0.282769 -0.324223 5.15369
-0.181071 -0.319951 5.14913
0.0676455 -0.360417 5.43151
0.0348077 -0.214656 4.38019
-0.244311 -0.313146 5.11732
-0.225504 -0.312814 5.11415
-0.0114657 -0.311902 5.09898
0.0648158 -0.347733 5.35706
-0.290987 -0.312496 5.12951
-0.273721 -0.311646 5.12257
-0.182712 -0.311687 5.13449
-0.170499 -0.31173 5.14988
-0.786861 -0.362237 5.57296
-0.156067 -0.311093 5.17642
-0.130604 -0.0687598 4.37668
-0.178189 -0.0595266 4.08793
0.0137675 -0.169643 4.0953
-0.715619 -0.358371 5.601
-0.676312 -0.341221 5.48537
-0.669595 -0.45107 6.43583
-1.18293 -0.72369 8.71922
-0.166118 -0.321267 5.38207
0.0142568 -0.165218 4.09729
0.0265646 -0.197741 4.37209
-0.647053 -0.427621 6.33163
-0.0156316 -0.0607256 4.10821
-1.11856 -0.535513 7.33423
0.0567792 -0.298264 5.25726
0.0148149 -0.191768 4.3696
-0.758125 -0.341765 5.78806
-0.777914 -0.336825 5.79669
-0.0125549 -0.0743916 4.17869
-0.0307982 -0.289257 5.38885
0.0608025 -0.277586 5.27288
-0.0533826 -0.0621269 4.19608
-1.20794 -0.497945 7.48767
0.0337129 -0.250977 5.03874
-1.39285 -0.530967 7.86905
-0.370739 -0.440393 7.10978
-0.0171102 -0.259307 5.22792
0.0547151 -0.187017 4.48027
0.0252156 -0.174448 4.36392
-1.20696 -1.0658 13.9952
-1.34827 -0.817333 11.4496
-0.349107 -0.455701 7.47202
-0.1441 -0.0700921 4.36434
-1.45515 -1.07554 14.4052
-1.45478 -1.14137 15.1293
-1.21747 -1.32987 17.5777
0.0189311 -0.142755 4.0902
0.0159433 -0.14258 4.09731
0.0585815 -0.239654 5.25079
-0.827382 -0.433686 7.65568
-1.0758 -0.420712 7.63933
-1.05214 -0.417931 7.60354
-0.976242 -0.40905 7.48921
-0.0349138 -0.252754 5.50084
0.0714293 -0.175981 4.56235
-1.39741 -0.410876 7.66629
0.0730314 -0.198227 4.88599
0.118432 -0.212874 5.07301
-1.09094 -0.401412 7.66005
-0.704843 -0.288967 6.19887
0.0558375 -0.221434 5.2454
-0.0586476 -0.0622807 4.21667
-0.00195466 -0.0672569 4.10459
-0.993879 -0.402016 8.03737
-0.374202 -0.360874 7.4764
0.0593947 -0.204446 5.25697
0.232225 -0.198896 5.15861
-1.11315 -0.659697 12.7448
-0.730274 -0.510601 10.4567
-0.204453 -0.0682731 4.50485
-1.18608 -0.291716 6.96696
0.0262713 -0.198225 5.34433
0.0889124 -0.175356 5.04903
0.0570284 -0.183117 5.23418
-0.0756118 -0.217599 5.94978
0.0495357 -0.17829 5.18452
-0.0810681 -0.0680501 4.36642
-1.01928 -0.311596 8.17369
-0.19553 -0.292171 7.6955
-0.187235 -0.281779 7.47981
-0.0505706 -0.0684391 4.2309
-2.45428 -1.45241 22.8728
-0.0383236 -0.0781967 4.21461
-0.0792816 -0.376899 10.3239
-0.870977 -0.252785 7.58012
-2.97323 -0.943293 25.3856
0.165991 -0.131656 4.5349
-0.99596 -0.223004 7.20672
-0.00974273 -0.0656823 4.14969
-0.144718 -0.0561402 4.41387
-0.218232 -0.245982 8.39984
-0.28424 -0.0738954 4.45085
-0.574426 -0.255798 8.96794
-0.983368 -0.278929 10.0417
-0.114886 -0.149953 6.11299
-0.0256075 -0.135444 5.47445
0.0111936 -0.108042 4.33877
-0.191667 -0.15627 7.4709
-0.0589014 -0.0662037 4.27575
-0.0727053 -0.115784 5.34172
-0.298607 -0.0743634 4.41419
0.00541612 -0.0797478 4.17948
-0.0704609 -0.0634375 4.37292
-0.405055 -0.0950919 5.19727
-0.04941 -0.0954193 4.95513
-0.0422475 -0.0952883 4.91988
-0.199257 -0.0934393 5.09937
-0.150207 -0.0916267 5.11208
-0.105747 -0.0898056 5.18022
-0.10421 -0.0897832 5.14333
-0.387983 -0.086599 5.08973
-0.0755617 -0.0878467 5.0601
-0.0505797 -0.0879899 4.96741
-0.0250322 -0.0880707 5.0091
-0.0188849 -0.0881291 4.93813
-0.263693 -0.0853474 4.92932
-0.262244 -0.0853456 4.93361
-0.465779 -0.0819996 5.17588
-0.440764 -0.082448 5.0585
-0.308784 -0.083498 4.88014
-0.271007 -0.0839138 4.79047
-0.057337 -0.0768846 4.38128
-0.214481 -0.0812664 4.71331
-0.17623 -0.0751156 4.48248
-0.632793 -0.0735542 5.08807
-0.26286 -0.074881 4.47514
-0.236878 -0.0750781 4.4676
-0.235608 -0.0749275 4.47955
-0.222433 -0.0748692 4.4879
-0.0866723 -0.387283 4.07996
-0.00351976 -0.389954 4.08933
-0.0703302 -0.364415 4.00497
-0.0323285 -0.396602 4.12548
0.00377004 -0.3867 4.08809
0.0734838 -0.265992 3.63472
0.0640115 -0.261999 3.6333
0.0713411 -0.261561 3.67141
0.0562903 -0.259841 3.66837
0.0410517 -0.256609 3.65913
0.0445606 -0.255729 3.66703
0.134935 -0.0756083 3.64969
0.121773 -0.0625904 3.65842
-0.00195087 -0.0646041 3.45218
-0.0471375 -0.0511567 3.59454
-0.0339346 -0.378102 4.07789
-0.0944076 -0.36867 4.05309
-0.0941209 -0.367054 4.07481
-0.0157091 -0.37019 4.10437
-0.575809 -0.0549586 4.39007
-0.0151492 -0.362894 4.09281
-0.0823356 -0.356636 4.07956
-0.0806112 -0.35767 4.08986
-0.0169283 -0.24782 3.66982
0.0344299 -0.163161 3.66454
0.0203698 -0.180289 4.09385
0.113673 -0.195367 4.28077
0.253901 -0.188567 4.39313
0.122214 -0.168842 4.22202
0.985762 0.80886 5.99791
-0.743561 -0.230883 5.31176
-0.0158437 -0.0550006 3.45838
0.0257545 -0.162591 5.44071
-0.026492 -0.0937192 3.54285
-0.0206417 -0.0550093 3.45846
-0.0351257 -0.0852242 3.55046
-0.0165822 -0.0754016 3.45396
-0.00898994 -0.0753883 3.45445
-0.0999879 -0.0696283 4.1426
-0.0281861 -0.0612566 3.45399
-0.116946 -0.0557344 3.9028
-0.039014 -0.0659725 3.50525
-0.0347631 -0.348658 4.08872
0.0167683 -0.351849 4.128
-0.0231544 -0.326072 4.08597
-0.485061 -0.277007 4.36274
-0.526888 -0.261727 4.30305
-0.521686 -0.261728 4.30306
-0.399465 -0.0944662 5.15867
-0.457968 -0.254513 4.37042
0.0226001 -0.161623 3.63639
-0.0388161 -0.047779 3.48336
0.304805 -0.217349 4.32977
0.0194367 -0.185383 4.08535
0.314415 -0.199946 4.3141
-0.991114 -0.654372 9.62306
-0.0275207 -0.0550275 3.45842
-0.0123367 -0.250291 5.14911
-0.0975338 -0.109647 5.0903
-1.16485 -0.385277 7.41698
-0.897908 -0.883668 15.3321
-0.874111 -0.211254 5.27957
0.226916 -0.154601 4.38202
0.0281053 -0.106533 3.63692
-0.00785948 -0.192888 6.07714
-0.0396085 -0.103903 4.40179
-0.0364224 -0.135618 5.49907
-0.894187 -0.17688 6.59496
-0.417003 -0.527322 10.0046
-0.00118471 -0.322251 4.06812
0.000171071 -0.319156 4.06712
0.156702 -0.440561 5.16709
-0.876195 -0.237589 5.27713
-0.883675 -0.237308 5.27294
-0.510278 -0.266375 4.31172
-0.681056 -0.545936 6.37308
0.00583313 -0.267064 4.35608
-0.82033 -0.154745 5.10431
-0.920168 -0.453382 7.11562
-1.11757 -0.309795 7.16909
0.119689 -0.151097 4.22666
0.236248 -0.166425 4.19021
0.228418 -0.17197 4.1791
-0.0894705 -0.0531459 3.85042
-0.0335218 -0.0570666 4.04907
-0.984261 -0.187101 6.62489
-0.852628 -0.159684 5.60849
0.0160723 -0.0938084 4.35167
-0.737314 -0.214945 6.51673
-0.73643 -0.472261 6.56801
0.214453 -0.211122 4.21951
0.215079 -0.135974 4.22239
-1.57973 -0.504161 7.60897
-0.772569 -0.199802 5.08282
-0.176538 -0.0590174 3.93953
-0.195867 -0.0590594 3.93951
-0.205919 -0.0611386 3.97966
-0.571808 -0.0885277 5.58455
-0.373828 0.708202 6.14101
-0.00177523 -0.261108 4.35188
0.0277913 -0.378064 5.47128
-0.0233935 -0.340248 5.22616
0.0617549 -0.355371 5.3577
-1.60443 -0.601739 7.86649
-0.24127 -0.0688163 4.43623
-0.0620246 -0.0776288 4.29846
-0.065524 -0.0625019 4.24706
-0.605655 -0.0838036 5.20021
-1.00845 -0.402597 7.42553
0.0146528 -0.1613 4.09646
-0.521892 -0.118615 5.40491
0.200068 -0.398493 5.11137
-0.846997 -0.42328 5.73134
-1.624 -0.627666 7.56586
-0.813915 -0.482012 6.34321
-1.61122 -0.487062 7.42168
-0.105475 -0.0976427 5.24871
-1.63752 -0.614327 7.50169
-0.0372752 -0.270983 5.16168
-1.613 -0.494749 7.44407
-0.102375 -0.302943 5.17158
0.167947 -0.285287 5.0791
-1.60192 -0.516143 7.55042
-0.879608 -0.323339 5.56382
-0.212972 -0.0744648 4.47166
-0.741784 -0.374811 6.49316
0.237589 -0.519151 5.13677
-0.153511 -0.308281 5.16838
-0.952474 -0.221201 7.2238
-0.439829 -0.100433 5.18431
-0.00958377 -0.378552 5.34736
-0.842249 -0.409798 5.62258
-0.85488 -0.40565 5.64395
0.0256744 -0.248824 4.35442
0.0274911 -0.248821 4.35439
-0.328375 -0.067669 4.32012
-0.836357 -0.361526 5.61278
-0.953865 -0.45302 6.99837
-0.231648 -0.278468 9.17937
-0.723064 -0.280328 10.7095
-0.0540548 -0.151896 6.18129
0.0592517 -0.18474 5.24257
-1.06273 -0.652808 12.3266
-0.710289 -0.494786 10.2035
-0.862983 -0.15777 5.90374
-0.235498 -0.437084 7.37292
-0.150617 -0.0723789 4.48626
-1.20438 -1.0612 14.0087
-0.963966 -0.675213 9.06464
-0.154616 -0.0723851 4.48763
-0.0119794 -0.074065 4.17826
-0.182004 -0.0744048 4.48016
-0.835871 -0.314551 11.2144
-1.04123 -0.238309 6.63017
-0.622461 -0.0752798 5.08917
-0.629598 -0.0752939 5.09625
-0.884716 -0.288327 8.06918
-0.0554003 -0.0674795 4.2477
0.20812 -0.275361 5.14974
-0.967571 -0.436251 7.03939
-0.0451188 -0.0614032 4.18589
0.0596383 -0.182074 5.24795
-1.1354 -0.312706 7.22153
-4.7742 -3.31162 16.7769
0.00126243 -0.235601 5.13952
-0.313776 -0.295003 5.09219
-0.226701 -0.251117 8.55682
-0.256941 -0.0842025 4.84333
-0.188522 -0.107142 5.8178
0.0217321 -0.220843 5.30774
-0.371233 -0.351984 11.7692
-0.00351821 -0.236885 5.15712
-1.31624 -0.845315 13.5163
-0.0700942 -0.0869528 4.95256
-0.311241 -0.31979 5.095
0.0738093 -0.532477 5.23298
-0.150192 -0.33448 7.24446
-0.395369 -0.239542 9.4923
-6.64243 -4.00466 23.466
0.066829 -0.498416 5.14545
0.0833923 -0.492118 5.14157
0.0379889 -0.489685 5.27002
0.0748964 -0.470253 5.17584
0.0679605 -0.471071 5.19683
-0.0481609 -0.282098 6.04893
-0.0438993 -0.477484 5.32044
-0.0494299 -0.478099 5.34222
-0.00846564 -0.0663636 4.14377
-0.966115 -0.366648 7.86733
-1.4899 -0.928073 14.6533
0.0708414 -0.451151 5.19724
0.0784654 -0.443449 5.185
-0.0854809 -0.319647 6.35466
-0.722519 -0.500013 5.57495
-0.0151262 -0.459498 5.35895
-1.44124 -1.07877 14.3653
-1.2011 -0.59343 19.4354
-0.00746506 -0.188038 5.13492
-0.722519 -0.481201 5.64895
0.0566588 -0.318965 5.24413
0.14247 -0.195346 4.53138
-0.173009 -0.312532 5.1553
-0.154741 -0.0905382 5.06915
0.0813016 -0.403735 5.18543
-0.0675018 -0.42078 5.36622
-0.286713 -0.349366 7.68813
-0.257351 -0.498056 8.95739
-0.562332 -0.122098 5.4212
-0.667863 -0.449394 5.61625
-0.0441141 -0.42392 5.43294
0.0532755 -0.396538 5.2359
0.057886 -0.253332 5.26292
-0.73868 -0.58662 6.63718
0.029196 -0.421289 5.43672
-0.8731 -0.447279 7.79096
-0.0432434 -0.422212 5.46659
-1.02045 -0.430067 13.7959
-0.0375077 -0.281504 5.15387
-0.986972 -0.337908 10.1381
0.282367 -0.39265 5.27169
-0.385735 -0.411849 7.26166
0.173804 -0.264843 5.12496
-0.339123 -0.331957 5.15327
-0.758865 -0.535207 6.49056
0.0204725 -0.393543 5.39285
-0.0331602 -0.342459 5.19579
-0.153206 -0.356296 5.31305
-1.31207 -1.03001 16.2891
-1.40636 -1.37738 19.1622
-0.817633 -0.510399 6.47003
-0.244774 -0.315335 5.12933
-0.233585 -0.315254 5.12864
-0.192158 -0.313585 5.13899
0.0166404 -0.10293 4.35796
0.0210534 -0.20497 4.1032
0.0157075 -0.171342 4.09383
-0.709904 -0.18566 5.7902
0.210716 -0.551142 5.20086
0.115283 -0.539104 5.1815
0.0996858 -0.542056 5.19968
-0.838933 -0.407645 5.60937
-0.837584 -0.405662 5.61284
-0.845362 -0.397786 5.62801
0.0187723 -0.118916 4.10154
-0.963236 -0.21681 7.26346
0.0182118 -0.108533 4.0845
0.0170346 -0.0764515 4.07834
0.174513 -0.49989 5.09421
0.0982625 -0.494037 5.10967
0.0575355 -0.521816 5.22412
0.133281 -0.495431 5.12161
0.21581 -0.498675 5.1323
0.221976 -0.499004 5.13343
0.12915 -0.493126 5.12027
0.218084 -0.497083 5.13362
0.257586 -0.505651 5.16573
0.111778 -0.494556 5.13361
-0.153583 -0.0580114 4.07883
0.241258 -0.394938 4.9845
-0.0395221 -0.425866 5.23084
-0.045687 -0.0618818 4.18164
-0.00904647 -0.0668683 4.13855
0.33316 -0.3546 4.95555
-0.775845 -0.631446 6.97509
0.384105 -0.338919 5.1276
0.0313757 -0.38597 5.46324
-0.011598 -0.0747796 4.18098
-0.809675 -0.384736 5.59046
0.0202675 -0.163485 4.39048
-0.82503 -0.25946 5.65274
-0.999978 -0.421516 7.62846
-1.06742 -0.416719 7.63446
-0.809664 -0.225918 5.61444
-0.110041 -0.0707125 4.31941
-0.909826 -0.230301 6.42221
-0.819565 -0.159402 5.59905
-0.058388 -0.0813264 4.2966
-0.240916 -0.0757149 4.43732
-0.219415 -0.0681317 4.48481
-0.198659 -0.0682708 4.48108
-0.252975 -0.0668134 4.48918
-0.0435498 -0.0893123 4.94373
-0.0585863 -0.0667005 4.25503
-0.054161 -0.0688262 4.24253
-0.174487 -0.0697693 4.42406
-0.207073 -0.0673383 4.51713
-0.17499 -0.0699778 4.45912
-0.157375 -0.072126 4.4632
-0.0596912 -0.077371 4.36722
-0.199708 -0.0750509 4.47966
-0.207037 -0.0751682 4.47217
0.0883686 -0.494387 5.14864
-3.49319 -13.4175 55.8807
0.0736694 -0.494602 5.1575
-0.267502 -0.0749111 4.47902
0.297736 -0.507166 5.22633
0.0269273 -0.507716 5.25091
0.161725 -0.470155 5.09713
0.0422924 -0.493258 5.21723
0.0984429 -0.466616 5.12312
0.066466 -0.473769 5.19501
0.127221 -0.456672 5.15477
0.127964 -0.454957 5.14734
0.246449 -0.427138 5.02449
0.124867 -0.456964 5.16467
-0.184496 -0.154719 7.27805
-0.268901 -0.0752753 4.45845
0.0760787 -0.448412 5.18998
-0.106425 -0.0805884 4.3412
-0.110867 -0.0777845 4.53932
-0.00181678 -0.473142 5.34339
-0.0459053 -0.0675015 4.21226
-0.0476292 -0.0945868 5.01779
0.106393 -0.423657 5.14853
0.080617 -0.425753 5.17801
0.0951348 -0.420587 5.15293
0.00970584 -0.447672 5.29491
-0.0119193 -0.462853 5.39041
-0.725636 -0.495365 5.57779
0.0635542 -0.426304 5.22043
-0.268678 -0.0835659 4.96037
-0.177942 -0.0857725 4.89558
-0.236667 -0.0853111 4.97421
0.283055 -0.427148 5.25029
0.0616564 -0.410069 5.22157
0.080196 -0.403941 5.1895
-0.0416741 -0.439756 5.38895
-0.703254 -0.471584 5.59637
-0.257779 -0.0850016 5.03768
0.0345072 -0.441918 5.44694
-0.093908 -0.412792 5.30629
-0.0552377 -0.428858 5.39159
0.0362929 -0.438419 5.44067
0.129148 -0.383142 5.14163
0.133352 -0.3795 5.14302
-0.155513 -0.0925809 5.08088
-0.678192 -0.450926 5.60684
-0.114738 -0.413902 5.38556
0.0325182 -0.423838 5.45057
-0.714112 -0.439755 5.57307
-0.705671 -0.442305 5.58732
-0.0803496 -0.421959 5.46948
-0.748568 -0.425276 5.54748
-0.064195 -0.423379 5.51881
0.273437 -0.373665 5.21981
-0.697779 -0.435842 5.62276
0.271886 -0.367748 5.19715
0.279015 -0.359187 5.1466
0.0538513 -0.372551 5.2433
-0.762418 -0.419976 5.56015
-0.738359 -0.420761 5.5791
-0.71532 -0.423471 5.5948
0.109076 -0.347409 5.1392
-0.681037 -0.424529 5.64682
-0.736901 -0.573472 6.58815
-0.108522 -0.375044 5.34065
-0.0380739 -0.389105 5.45513
-0.105234 -0.097011 5.24121
-0.0634685 -0.0671448 4.31831
-0.653316 -0.41322 5.63977
-0.0708102 -0.399793 5.5388
-0.0968963 -0.0680966 4.37841
-0.315383 -0.333112 5.13426
-0.157488 -0.367541 5.35038
-0.110022 -0.0973511 5.3438
-0.70329 -0.399873 5.58818
-0.670048 -0.516615 6.34065
-0.697037 -0.412674 5.68759
-0.779066 -0.392313 5.57354
-0.73931 -0.390084 5.55783
-0.657991 -0.401094 5.62782
0.0502502 -0.378675 5.46131
0.075309 -0.338583 5.19764
-0.754698 -0.527087 6.52939
-0.040232 -0.324542 5.14734
-0.713918 -0.385103 5.59026
-0.276739 -0.313515 5.11859
-0.266937 -0.313356 5.11721
-0.230345 -0.313956 5.12032
0.0686115 -0.363667 5.45484
0.0326804 -0.207284 4.3769
-0.299102 -0.312953 5.1287
-0.207206 -0.312601 5.12363
-0.188045 -0.31201 5.13249
0.0139814 -0.204052 4.36877
-0.174596 -0.311577 5.14279
-0.0709424 -0.1119 5.2613
0.0559205 -0.324899 5.26036
0.0769048 -0.315755 5.19382
-0.695429 -0.373682 5.65261
-0.324176 -0.302909 5.12678
-0.319552 -0.298245 5.12073
0.0463177 -0.337056 5.39757
-0.789643 -0.357314 5.591
-0.695489 -0.347761 5.53498
-0.734724 -0.473664 6.48697
-0.266672 -0.126612 6.50898
-0.758978 -0.46915 6.48097
-0.785427 -0.457696 6.42148
-0.0257371 -0.067323 4.17846
-0.707171 -0.347697 5.61142
-0.154406 -0.308133 5.28396
-0.777641 -0.348689 5.64154
-0.856672 -0.463446 6.55363
-0.707141 -0.46147 6.53336
-0.680609 -0.479804 6.67787
-0.0751456 -0.291149 5.1638
-0.0813355 -0.288434 5.15813
-0.701142 -0.337476 5.59006
-0.708237 -0.4548 6.53912
-0.170523 -0.306339 5.3395
-0.0449974 -0.281604 5.16592
-0.148469 -0.302367 5.36099
0.0592128 -0.290211 5.26972
-1.22724 -0.584148 7.86069
-0.0219218 -0.274159 5.15237
-0.841273 -0.433493 6.61622
0.0421034 -0.304625 5.47393
-0.0973747 -0.114642 5.31378
-0.931509 -0.655971 8.68949
0.0373627 -0.302287 5.4744
0.028209 -0.180024 4.37449
0.0406672 -0.298182 5.45853
-0.0318825 -0.066793 4.19128
-0.0328406 -0.2822 5.377
-1.13646 -0.483516 7.35654
-0.976202 -0.453563 7.06534
-0.927849 -0.5068 7.57134
-0.932537 -0.592231 8.38618
0.0604968 -0.270159 5.2804
0.0277302 -0.174793 4.37212
-1.38245 -0.503152 7.60016
-0.961193 -0.442239 7.0392
-1.06054 -0.724256 9.87473
-0.919368 -0.578287 8.61264
-0.368148 -0.444866 7.22199
-0.347003 -0.443415 7.25353
-0.291031 -0.432519 7.13808
-0.229946 -0.4569 7.38955
-0.0545771 -0.334802 6.11253
0.0123772 -0.254138 5.27068
-0.747207 -0.367184 6.51313
0.0586555 -0.251559 5.26411
0.0924138 -0.230749 5.04344
-1.00173 -0.409218 7.01093
-1.41944 -0.960993 13.0485
-1.47078 -1.10976 14.6615
-0.0074313 -0.239645 5.1833
-1.45344 -1.0934 14.6333
-0.164138 -0.360923 6.54276
0.0340715 -0.164747 4.39269
-0.0843827 -0.0606942 4.33969
-0.0938461 -0.328333 6.25584
-0.0987435 -0.125459 6.11839
-0.806099 -0.267578 5.62657
-0.850776 -0.489801 8.1729
-0.450034 -0.42716 7.43985
-1.223 -1.01855 14.5565
-0.836721 -0.424448 7.59641
-0.474103 -0.493536 8.40833
-0.755119 -0.179006 8.42499
-1.15037 -0.368473 6.99031
-0.74945 -0.19229 8.79087
0.0606476 -0.128149 5.3167
-0.0806724 -0.306767 6.23723
-0.0911268 -0.318411 6.42524
-0.0831691 -0.306908 6.28079
-1.28111 -0.408755 7.67104
-1.20239 -0.40393 7.60629
-0.808175 -0.398328 7.51823
-1.43768 -0.913956 14.2782
-0.0326594 -0.260207 5.76205
-0.81144 -0.245248 5.63519
-0.00802215 -0.20906 5.15033
-0.0476085 -0.272083 6.03563
0.247343 -0.206408 5.12963
-0.347151 -0.368757 7.42873
0.0281575 -0.147764 4.36904
-0.982432 -0.373707 7.66708
-0.251952 -0.358961 7.49208
0.0614465 -0.207573 5.26885
0.228717 -0.122028 4.92285
-0.138569 -0.368351 7.69897
-0.768901 -0.351485 7.55216
-5.20468 -3.78674 59.7819
-6.2959 -4.64619 72.8482
-3.0939 -2.17762 35.9279
-0.778276 -0.945687 16.8003
0.0411571 -0.205972 5.34314
0.13683 -0.192968 5.13773
-0.770768 -0.342305 7.56402
-1.09828 -0.302323 7.01862
-1.02055 -0.593674 11.6923
-0.724847 -0.513996 10.3981
-1.16283 -0.291826 6.92025
-0.294071 -0.0664762 4.45743
-0.0121049 -0.185313 5.14817
0.255907 -0.187098 5.16403
-0.950052 -0.336806 7.81985
-0.0259468 -0.0681164 4.17733
-0.200993 -0.317235 7.71072
-0.0618787 -0.23383 6.30478
0.0566048 -0.178791 5.24488
-0.744841 -0.207247 5.89102
0.0542396 -0.13126 5.35955
-1.04338 -0.275871 7.34601
-1.25694 -0.261901 7.16814
-1.03232 -0.235987 6.62009
-0.0124357 -0.277441 7.41171
-0.895895 -0.304173 8.13458
-1.05468 -0.63952 15.2405
0.0369158 -0.175099 5.34459
-1.24224 -0.240898 6.9979
-0.0321877 -0.0676278 4.1895
-0.95238 -0.305343 8.70498
-0.105181 -0.27711 7.97819
-0.0232295 -0.174307 5.53932
0.0579729 -0.160487 5.25632
-1.02603 -0.362604 10.4733
-0.239519 -0.352726 10.1676
0.135839 -0.149885 5.03676
-0.967277 -0.22514 7.24044
-1.11853 -0.412896 12.2938
0.0226512 -0.175825 5.84012
-0.933218 -0.36836 11.3443
-0.182387 -0.474038 14.2213
-0.128094 -0.178514 7.50891
-0.118221 -0.0704413 4.32852
-0.879215 -0.212322 7.12741
-0.380832 -0.390773 12.2241
0.0190045 -0.174528 6.05535
-0.13115 -0.0690661 4.37688
-0.870274 -0.178047 6.44924
-0.928169 -0.391001 13.3285
0.0257888 -0.114907 4.36205
-0.903436 -0.175756 6.62356
-0.841012 -0.306098 11.1949
-0.742145 -0.228209 8.67361
-0.162204 -0.213195 8.27968
-0.740366 -0.179831 7.23153
0.0352873 -0.137841 5.44746
-0.0565065 -0.15403 6.24765
-0.0477586 -0.130852 5.25891
0.0901284 -0.231171 5.02883
-0.715633 -0.48226 5.56653
-0.168335 -0.177561 7.59978
-0.0912672 -0.159839 6.77305
-0.0500698 -0.101217 4.29803
-0.0205207 -0.0858529 4.2093
-0.299617 -0.065908 4.49672
-0.217373 -0.0656871 4.38251
-0.0232612 -0.0667835 4.17573
0.122211 -0.463243 5.09872
0.30535 -0.39126 4.98393
-0.0303939 -0.0667199 4.18938
-0.0312152 -0.0682757 4.18824
0.0245135 -0.176771 4.36142
0.0144529 -0.111441 4.35122
-0.113392 -0.0963573 5.25995
-0.384589 -0.0933243 5.07939
-0.0655948 -0.0720265 4.36611
-0.0383701 -0.0795314 4.21307
-0.0476466 -0.077184 4.2721
-1.13234 -0.312303 7.24732
-0.655969 -0.432343 9.75356
-0.507781 -0.49736 12.2097
0.0473389 -0.49146 5.25816
0.0280917 -0.487794 5.25155
0.133927 -0.455156 5.14798
0.179776 -0.428979 5.098
-0.0405326 -0.484427 5.325
-0.0319729 -0.480659 5.31009
0.0708041 -0.451431 5.19395
0.155518 -0.437271 5.1373
-0.043275 -0.479357 5.31254
0.0686679 -0.449061 5.19152
0.0765042 -0.4475 5.18526
-1.22665 -0.66112 19.3022
0.106086 -0.424021 5.14553
0.1539 -0.422244 5.13769
0.186444 -0.41759 5.11817
0.106667 -0.420867 5.13947
0.00397313 -0.466851 5.34691
-21.8284 -18.3384 80.7076
0.00691938 -0.449466 5.29774
0.0617798 -0.425346 5.21735
0.183409 -0.399759 5.1127
-0.0335867 -0.456556 5.3701
0.0524681 -0.477389 5.46007
0.145819 -0.402386 5.13177
0.149933 -0.401393 5.12739
0.190941 -0.398904 5.11609
0.216883 -0.398013 5.11915
0.105919 -0.401868 5.14468
0.124929 -0.400239 5.13728
0.0827327 -0.408187 5.18045
0.0194863 -3.84116 20.597
-0.832004 -0.311773 11.2476
0.0795706 -0.401722 5.18259
-1.73202 1.52175 18.0409
-0.0435654 -0.447739 5.4018
-0.00545136 -0.439747 5.37393
0.0660611 -0.402401 5.2099
-0.0215224 -0.441076 5.39859
-0.32489 -0.24379 9.96988
0.12665 -0.381802 5.13743
0.242804 -0.335713 4.93311
0.0585475 -0.433148 5.40774
-0.728979 -0.475345 5.62873
-0.108402 -0.429201 5.40021
0.0413652 -0.423859 5.38249
-0.113254 -0.416196 5.35647
-0.077432 -0.408773 5.31995
-0.442509 -0.210334 9.83163
0.140316 -0.368385 5.15414
0.136142 -0.378109 5.21156
-0.118854 -0.408625 5.37738
0.0416098 -0.40043 5.33429
-0.843005 -1.30528 9.95485
-0.703344 -0.445726 5.60505
-0.728157 -0.435535 5.56414
0.0547009 -0.375487 5.24475
-0.687243 -0.446903 5.63451
-0.00570644 -0.393462 5.34863
0.0211175 -0.397663 5.38062
-0.102157 -0.400672 5.40827
0.135155 -0.345047 5.12939
-0.707759 -0.420793 5.55557
-0.730034 -0.417528 5.54995
0.072021 -0.357164 5.21398
0.110872 -0.342647 5.1439
0.0272247 -0.387429 5.40061
0.0627332 -0.393826 5.45838
-0.653759 -0.423061 5.65462
-0.0287729 -0.337694 5.16503
-0.776102 -0.569435 6.5037
-0.156292 -0.364891 5.33115
-0.332755 -0.334784 5.17099
0.0774085 -0.340995 5.2026
-0.145909 -0.0712565 4.48832
-0.0384393 -0.326842 5.15166
-0.0514609 -0.0681827 4.23627
-0.644764 -0.395938 5.58942
-0.651348 -0.51898 6.32249
-0.748955 -0.53598 6.44439
0.0314958 -0.370105 5.44116
-0.648209 -0.381995 5.53213
-0.247364 -0.314078 5.11749
-0.23575 -0.314116 5.11761
-0.301729 -0.314075 5.12804
-0.284071 -0.312671 5.11932
-0.209389 -0.313208 5.12187
0.172489 -0.312851 5.116
0.0120438 -0.189883 4.36821
-0.749176 -0.538335 6.51964
-0.197911 -0.312309 5.12639
-0.173172 -0.311526 5.14198
0.0570038 -0.3311 5.26185
0.078343 -0.322599 5.20863
-0.336216 -0.310396 5.147
-0.731573 -0.375442 5.58764
-0.717385 -0.37728 5.59924
-0.707305 -0.38608 5.67023
-0.320118 -0.300498 5.11565
0.0288946 -0.357135 5.47695
0.0748996 -0.315656 5.20949
-0.71067 -0.369563 5.57821
0.0117019 -0.183967 4.36695
-0.845371 -0.513471 6.53554
-0.767477 -0.500881 6.45244
-0.158191 -0.329527 5.32559
0.0546787 -0.319561 5.25838
0.0557715 -0.316891 5.25283
-0.655197 -0.363082 5.57882
-0.702374 -0.497384 6.54089
-0.332636 -0.28825 5.12203
0.209677 -0.286957 5.14303
-0.738813 -0.34857 5.60265
-0.731615 -0.476889 6.51703
-0.647809 -0.465587 6.43573
-0.759586 -0.467719 6.47573
-0.0725716 -0.284683 5.15348
-0.100163 -0.366769 5.79795
-0.0220414 -0.278368 5.14398
-0.737798 -0.337834 5.60637
-0.676903 -0.472309 6.6622
-0.196155 -0.302172 5.36486
-0.0952417 -0.0605675 4.43143
0.034685 -0.314913 5.49196
-0.0305291 -0.297279 5.38672
-1.36814 -0.599268 7.82384
-1.29536 -0.591188 7.79853
-1.13399 -0.547465 7.44474
0.0559652 -0.275309 5.24096
-0.929596 -0.477248 6.90827
-0.170363 -0.287594 5.3576
-1.21589 -0.57933 7.78237
0.0339277 -0.294109 5.42557
-0.028196 -0.284561 5.36366
0.598844 -0.484672 7.022
-0.0397174 -0.286692 5.4325
-0.902882 -0.591722 8.1028
0.0933829 -0.234843 5.0262
0.059811 -0.261566 5.2967
0.0827401 -0.230975 5.01913
0.210422 -0.245064 5.14592
-1.27025 -0.509274 7.59585
-0.946237 -0.51425 7.63903
-0.921309 -0.503738 7.54243
-0.953941 -0.656009 8.93923
-1.11294 -0.469681 7.27124
-0.93507 -0.600577 8.48436
-0.0618345 -0.344562 6.1025
-0.0558634 -0.329229 5.9602
-1.2702 -0.498092 7.57973
-0.963205 -0.438564 7.05682
-0.903148 -0.478238 7.43322
-0.00278472 -0.240341 5.1834
-0.0615369 -0.333924 6.11127
-0.892814 -0.564819 8.47757
-0.351694 -0.447529 7.30404
0.0588827 -0.243094 5.26234
-0.89403 -0.574723 8.63661
-0.178973 -0.399493 6.90121
0.00481214 -0.229036 5.15646
-0.995751 -0.402705 6.98024
-1.01912 -0.395812 6.94968
-0.894856 -0.399157 7.02623
-0.852125 -0.462927 7.70427
-1.50197 -1.01439 13.5743
-0.480034 -0.469791 7.77484
-0.403715 -0.418925 7.23329
-1.44105 -1.08706 14.489
-1.31713 -1.0847 14.4628
-1.06187 -0.597314 9.3566
-1.01483 -0.373036 7.05118
-0.965508 -0.450079 7.95463
-0.092214 -0.312464 6.3353
-0.823659 -0.518904 8.83495
-0.0827815 -0.308668 6.32786
-0.0252563 -0.243988 5.55752
-0.00830169 -0.209397 5.14562
-0.0974015 -0.0597203 4.44655
0.0593192 -0.214736 5.2522
-1.26648 -0.401936 7.61487
-1.21152 -0.401271 7.60629
-0.975724 -0.402397 7.61907
-1.41381 -0.900906 14.1565
-1.03623 -0.91333 14.3144
-0.989603 -0.777533 12.7107
-0.340404 -0.362384 7.33771
-0.751592 -0.438726 8.43131
-1.38857 -0.831773 13.7469
0.00359473 -0.234695 5.7023
-0.258954 -0.378622 7.75032
-0.925458 -0.380836 7.85497
-1.31707 -1.25499 20.304
-0.244757 -0.362701 7.59396
0.0585991 -0.192521 5.24707
-1.13563 -0.306085 7.02013
-1.03416 -0.311682 7.17009
-0.813401 -0.338942 7.59555
0.19435 -0.181845 5.13654
-0.9727 -0.568724 11.3354
-0.182141 -0.331838 7.55604
0.0946199 -0.175205 5.05776
-1.04006 -0.34009 7.93718
0.0487479 -0.176436 5.1887
-0.201606 -0.310072 7.58705
-0.813443 -0.295354 7.49071
0.161538 -0.161358 5.00604
-0.71711 -0.197893 5.77556
-0.168438 -0.059987 4.44366
0.0322515 -0.125545 4.41405
-0.713149 -0.186505 5.79627
-0.898561 -0.292348 8.13825
-0.922203 -0.264307 7.73521
-0.0491749 -0.0727084 4.22384
0.138139 -0.149086 5.03825
-0.16491 -0.0691415 4.34114
0.056872 -0.156228 5.24798
0.131806 -0.144469 4.96438
0.0275081 -0.178399 5.91075
-0.515062 -0.401716 11.9058
-0.800935 -0.163425 5.8516
-0.876823 -0.271775 9.38121
-0.200616 -0.223295 7.8435
-0.902172 -0.18305 6.67093
-0.0688324 -0.186685 6.92884
-0.107516 -0.0696094 4.37342
-0.878479 -0.310529 11.5389
-0.676177 -0.169877 6.58188
-0.115525 -0.0703483 4.35766
-0.750541 -0.219783 8.7028
-0.766111 -0.292566 11.5958
-0.783777 -0.206663 8.40988
-0.870302 -0.249606 10.5586
-0.223479 -0.175256 7.49105
-0.129893 -0.0693486 4.3797
-0.231611 -0.0691013 4.40435
0.0555075 -0.129062 5.33758
-0.869388 -0.146442 6.27726
-0.545939 -0.119729 5.33957
0.157311 -0.109672 4.99534
-0.177803 -0.0695643 4.40948
-0.230177 -0.0748008 4.48843
-0.414971 -0.107097 5.00764
0.00457823 -0.107255 5.05211
-0.187005 -0.0695944 4.40906
-0.240773 -0.102525 5.41408
-0.165497 -0.103094 5.57353
-0.264897 -0.100441 5.38405
-0.243398 -0.0753097 4.47259
-0.199104 -0.0697008 4.40698
-0.0651668 -0.0947582 5.02729
-0.0385145 -0.0947771 4.99416
-0.203545 -0.0690978 4.42091
-0.268794 -0.0757497 4.45939
-0.153673 -0.0917208 5.03377
-0.726638 -0.0873014 5.70923
-0.25748 -0.0866866 5.09836
-0.089297 -0.0883548 4.85494
-0.0561506 -0.0923826 4.30703
-0.260343 -0.0856875 5.02625
-0.262845 -0.0673296 4.46311
-0.438468 -0.0828019 5.02319
-0.434065 -0.082931 5.01129
-0.266717 -0.0838397 4.9172
-0.392996 -0.0760434 4.66136
-0.291542 -0.0747642 4.4918
-0.261686 -0.0763568 4.52719
-0.0990455 -0.0790553 4.4225
-0.0904566 -0.0788101 4.43111
-0.309727 -0.0746806 4.49514
-0.223882 -0.075492 4.4939
-0.186794 -0.0756056 4.48874
-0.174047 -0.0754003 4.49513
0.053666 -0.384071 5.48414
-0.0357348 -0.319327 5.14773
-0.0961772 -0.150318 6.39052
-0.10057 -0.113925 5.1901
-0.0979684 -0.0945833 5.08538
-0.0857482 -0.0799418 4.41338
0.0675962 -0.469608 5.1796
0.128732 -0.458618 5.15788
0.134628 -0.455798 5.14789
0.152235 -0.440934 5.13419
0.053851 -0.487993 5.31938
0.226629 -0.440446 5.14389
-0.0452246 -0.477336 5.30652
0.0783061 -0.445036 5.18508
-0.0438213 -0.472319 5.30102
-0.0565414 -0.0727374 4.2538
-1.1212 -0.306874 7.1372
-0.289757 -0.141996 6.24715
-0.0936207 -0.0703054 4.52969
-0.260253 -0.0752586 4.46301
-0.28808 -0.0743478 4.48803
-0.291412 -0.0743112 4.48924
-0.244711 -0.0770123 4.45348
-0.160837 -0.0763321 4.48286
-0.167455 -0.0758278 4.49722
-0.2365 -0.0758409 4.50382
-0.00278193 -0.470688 5.33626
0.100397 -0.420308 5.14576
-0.0079913 -0.46116 5.32017
0.0586221 -0.432827 5.20792
0.0572632 -0.428393 5.21015
0.18117 -0.400918 5.10585
0.00373563 -0.439648 5.27649
0.184521 -0.398075 5.10679
0.149283 -0.401929 5.1289
0.120862 -0.400681 5.1367
0.13114 -0.398001 5.12559
0.0821636 -0.407742 5.17945
0.108879 -0.398432 5.14046
-0.0209504 -0.430588 5.29741
0.0681099 -0.399806 5.19446
0.124309 -0.377333 5.13085
-0.327721 -0.0722654 4.7242
0.132157 -0.375696 5.13054
-0.100661 -0.417194 5.32491
0.126266 -0.374591 5.13262
0.0550048 -0.39532 5.24167
0.152982 -0.363252 5.13844
-0.118318 -0.404954 5.36166
-0.0847326 -0.414863 5.40953
0.26595 -0.365543 5.17259
0.269349 -0.372739 5.21538
0.267179 -0.364722 5.17648
0.11176 -0.357252 5.14753
0.0371345 -0.399211 5.37963
-0.722992 -0.46123 5.70833
0.0756546 -0.358582 5.21085
0.0679501 -0.391286 5.39698
-0.321444 -0.34047 5.1494
-0.680834 -0.425277 5.63763
-0.0269838 -0.33835 5.17332
-0.727891 -0.419039 5.62728
-0.91193 -0.682028 7.10287
0.0719071 -0.336578 5.20894
-0.727128 -0.578435 6.56868
-0.153553 -0.353316 5.31084
-0.33738 -0.330634 5.19204
-0.300412 -0.322498 5.14635
-0.207626 -0.326244 5.16796
-0.201189 -0.326405 5.1689
-0.309461 -0.320271 5.14263
0.0782876 -0.329484 5.19703
-0.267944 -0.318113 5.13952
-0.248648 -0.314223 5.11737
-0.223407 -0.31746 5.13603
-0.179807 -0.321261 5.15801
-0.67938 -0.402528 5.63266
-0.292856 -0.313722 5.12313
-0.281141 -0.314918 5.13009
-0.25511 -0.313144 5.12001
-0.220803 -0.313041 5.11961
-0.211461 -0.313059 5.11977
0.0322863 -0.368158 5.43861
-0.75157 -0.537065 6.44431
-0.185335 -0.311818 5.13076
0.0508143 -0.365359 5.44517
0.079783 -0.324426 5.20603
-0.763828 -0.533458 6.44182
-0.697674 -0.539501 6.47781
0.073862 -0.323595 5.21088
-0.149312 -0.309413 5.16379
-0.325168 -0.302558 5.13049
-0.317766 -0.299447 5.11152
-0.1666 -0.329965 5.33245
-0.113776 -0.311407 5.23792
0.0550474 -0.312296 5.2558
-0.0833349 -0.300968 5.19264
-0.336168 -0.290079 5.13037
-0.0749037 -0.291829 5.1648
-0.16145 -0.318945 5.35585
-0.167316 -0.319721 5.37343
-0.738841 -0.348819 5.60781
0.216075 -0.280988 5.14809
