# .PCD v.6 - Point Cloud Data file format
FIELDS x y z
SIZE 4 4 4
TYPE F F F
COUNT 1 1 1
WIDTH 1723
HEIGHT 1
#VIEWPOINT 0 0 0 1 0 0 0
POINTS 1723
DATA ascii
-0.898421 -0.195524 6.81276
0.0241961 -0.342236 2.42013
0.0819949 -0.0251421 1.95603
-0.104392 -0.00692398 1.88923
-0.0174316 -0.398626 2.73346
0.0237764 -0.00631833 1.94168
-0.0981324 0.0175843 1.61952
-0.638934 -0.443976 3.07772
-0.0765477 -0.0232354 2.58533
0.0920818 -0.276725 2.25143
-0.00648373 -0.363845 2.71493
-0.4335 -0.444568 14.0406
0.00682484 -0.358974 2.71223
-0.74896 -0.452693 3.25449
-0.561375 -0.0128252 2.7546
-0.818733 -0.167546 5.48209
-0.612381 -0.404321 3.04899
-0.00431284 -0.343064 2.70998
-0.0966795 -0.0164887 2.30433
0.0810186 -0.335457 2.75311
0.0411526 0.0020212 1.49381
-0.853036 -0.461715 13.6283
1.43726 -0.774954 5.36252
-0.658577 -0.140681 4.36802
-0.569461 -0.381848 3.13405
0.026694 -0.367051 3.0283
-1.03679 -0.839812 23.7103
1.2425 -0.853128 5.98081
0.0334318 -0.368368 3.06828
1.49815 -0.898345 6.2911
-0.584177 -0.367221 3.09448
0.109357 -0.17651 1.89239
1.45308 -0.904695 6.37333
0.0704839 -0.314831 2.7657
1.39065 -0.89731 6.37144
-0.610407 -0.354413 3.0818
0.0724455 -0.307163 2.76025
0.00273517 -0.362072 3.13126
1.37926 -0.71541 5.37338
-0.618084 -0.351945 3.1006
1.24789 -0.6968 5.32791
1.34959 -0.714414 5.4406
-0.545712 -0.0414707 2.91511
1.18645 -0.836556 6.2905
1.25533 -0.719264 5.55088
-0.754548 -0.153991 4.50407
0.108151 -0.176517 1.98954
-0.624124 -0.321239 3.07351
-0.554056 -0.341149 3.21247
-0.0640572 -0.478876 4.1736
-1.5243 -1.36937 20.3018
-0.0127284 -0.115993 4.33071
-0.639149 -0.3154 3.0701
-0.555367 -0.332834 3.19332
0.11285 -0.168175 1.98565
-0.649937 -0.315366 3.08944
0.0963243 -0.167335 1.98949
-0.609196 -0.30854 3.05768
0.0671613 -0.271839 2.78441
-0.625471 -0.440269 4.11281
-0.649207 -0.270727 2.85088
-0.63975 -0.432392 4.08333
-0.778096 -0.278896 10.4008
-0.718156 -0.413248 4.02776
-0.714993 -0.123561 6.45922
0.0360559 -0.39957 3.95547
-0.708406 -0.400617 4.01859
-0.593846 -0.399237 4.0037
-0.039349 -0.423213 4.24638
0.539908 -0.301447 3.22201
-0.584271 -0.396045 4.10517
-0.0242918 -0.0500799 3.09493
-0.645453 -0.377913 4.05242
0.0659298 -0.228313 2.7257
0.26603 -0.222033 2.66418
-0.482984 -0.113544 5.87927
-0.96924 -0.427864 4.53736
-1.10518 -0.479235 5.08511
-0.491371 -0.0864528 5.29663
-0.508664 -0.0515504 2.92544
-0.0840678 -0.365603 4.17186
-0.665407 -0.349158 4.07472
0.0817695 -0.217553 2.79227
-0.588412 -0.347316 4.13017
-0.596711 -0.327952 3.97826
-0.512617 -0.0560461 2.90048
0.111704 -0.119915 1.90571
0.223692 -0.158697 2.3424
-0.663241 -0.306126 3.95028
-0.710593 -0.567823 6.71167
0.374054 -0.187733 2.6611
-0.61057 -0.198846 2.84189
-0.0180579 0.0514686 2.7595
-0.712734 -0.103579 6.07003
0.253953 -0.122045 2.001
-0.0649427 0.000949387 1.70246
0.053851 -0.0460391 1.46709
0.110908 -0.111062 1.90069
0.259054 -0.118525 1.991
-0.0973099 -0.0041249 1.6528
-0.525845 -0.056596 3.09018
-0.627018 -0.259736 3.67513
-1.20456 -0.635435 8.10415
0.160254 -0.225859 3.32236
0.237528 -0.128617 2.17258
0.173589 -0.100854 2.70351
0.244036 -0.122597 2.17378
0.23697 -0.106179 1.96838
-0.469275 -0.299031 4.4716
0.0197455 -0.0522016 2.14917
-0.953205 -0.650126 9.36475
-1.18177 -0.93923 19.8968
-0.0372456 -0.337519 5.21381
-1.20209 -0.986692 14.3233
-0.155551 -0.38401 5.93644
0.0795941 -0.00240628 1.95668
-0.0322127 -0.312354 5.0825
0.101347 -0.0960821 1.97709
-0.482259 -0.259229 4.46987
-0.967609 -0.624175 9.91832
0.0648422 -0.165165 3.04392
-1.40166 -1.45108 22.6326
-1.44701 -2.08006 32.1597
-3.7344 -3.99119 62.3832
-0.115993 -0.292808 5.10473
-0.583127 -0.184781 3.56273
-0.713253 -0.110047 6.07388
0.150491 -0.157538 3.17486
-1.15609 -0.360724 6.76933
-0.721303 -0.269821 5.19112
-1.02364 -0.394457 7.33813
-0.707381 -0.177363 3.66852
-1.44718 -0.46552 9.09885
-0.71166 -0.25247 5.16417
0.0646962 -0.00402677 1.93725
0.0191892 -0.203684 4.22907
-0.68158 -0.477045 9.87456
-0.892635 -0.236515 5.39049
-0.62043 -0.0537292 4.20235
0.0521218 -0.0436392 1.47655
0.239886 -0.101738 1.82699
-0.502938 -0.150828 2.36952
0.273894 -0.110864 1.99547
0.16469 -0.0815022 1.70497
0.0564282 -0.0502899 1.43498
0.0506758 0.0088427 1.40964
0.0460825 -0.0314005 1.36827
0.0515007 -0.0290823 1.38102
0.0486016 -0.0252322 1.40382
0.0484263 -0.0238851 1.40146
0.0436827 0.00634638 1.40234
-0.490911 -0.00260157 2.34849
0.0482308 -0.0122138 1.40068
0.0531664 0.00124092 1.40038
0.0442902 0.00338 1.40473
0.156465 -0.236377 1.87382
0.145831 -0.237594 1.8872
0.165131 -0.227286 1.87056
0.1339 -0.22528 1.86711
0.167136 -0.223127 1.86615
0.127826 -0.231273 1.91465
0.0660937 -0.319887 2.30591
-0.510672 -0.272525 2.42233
1.22954 -0.649351 5.76399
-0.731224 -0.288859 3.07949
-0.695561 -0.347634 4.01405
0.258855 -0.118708 1.99029
-0.484429 0.0488699 2.33885
-0.760132 -0.107906 3.11902
0.110416 -0.0549041 1.97344
0.0448761 -0.00302092 1.49455
0.0191577 -0.0162769 2.11388
0.0125153 -0.0123777 2.22153
-0.0608953 0.00293425 1.7563
-1.42824 -0.895663 14.1902
-1.58896 -1.63444 25.3286
-1.48364 -1.19847 25.1041
0.0485402 -0.342482 2.32736
0.060894 -0.00401336 1.90752
0.113661 -0.2684 2.04603
0.0503637 -0.00316635 1.94125
0.0795404 -0.0041745 1.9465
0.0152675 -0.327108 2.3106
0.114964 -0.337387 2.35205
0.0410217 -0.00434934 1.93876
-0.0983186 -0.00317643 1.68375
0.0913827 -0.214917 1.8815
0.109529 -0.210125 1.85989
0.107178 -0.302171 2.2894
-0.0232408 -0.399054 2.73878
0.0880641 -0.305037 2.31709
0.097184 -0.215123 1.91631
-0.0313961 -0.399412 2.78
0.160196 -0.20378 1.86755
0.0863335 -0.207697 1.91763
-0.723877 -0.505395 3.37962
0.113413 -0.208815 1.93873
0.109297 -0.352294 2.73574
-0.00866511 -0.346827 2.72045
-0.0233781 -0.337493 2.72697
-0.515549 -0.31135 2.6055
0.0642479 -0.314959 2.61428
0.0994481 -0.201145 1.99494
-0.607519 -0.366664 2.9206
0.124683 -0.291152 2.50363
0.109034 -0.0110097 1.94492
-0.569201 -0.352745 2.86858
0.122573 -0.373426 2.98385
0.0299654 -0.382082 3.0622
1.48191 -0.859017 5.84021
1.59602 -0.855305 5.81655
1.72679 -0.918018 6.17721
-0.576511 -0.385561 3.15291
1.22306 -0.844224 5.90072
2.25188 -1.09324 7.41386
1.3928 -0.915564 6.44424
0.0753841 -0.317129 2.83291
0.115197 -0.180962 1.99522
0.108696 -0.1655 1.90031
-0.569268 -0.35143 3.10339
1.56381 -0.715154 5.38515
0.00198492 -0.34177 3.06345
1.28925 -0.704368 5.35641
1.41777 -0.743227 5.60233
1.21295 -0.885213 6.55811
1.66645 -1.16905 8.37831
1.12097 -0.675223 5.20679
1.20073 -0.713347 5.4509
1.25358 -0.70888 5.4211
0.109368 -0.158538 1.90393
1.20846 -0.884755 6.60019
1.24899 -0.888339 6.62269
1.1798 -0.696369 5.37699
-0.684656 -0.325672 3.03723
-0.595419 -0.33325 3.08554
-0.633059 -0.325078 3.06557
1.62458 -0.717983 5.65968
-0.0376109 -0.359157 3.32105
-0.0050158 -0.325967 3.09376
-0.0463213 -0.339566 3.20591
-0.650104 -0.286786 2.88577
-0.0822434 -0.487885 4.28404
0.0832971 -0.307937 3.01961
0.125551 -0.324872 3.13747
0.0917446 -0.161266 1.99148
0.123912 -0.319445 3.11767
0.0948194 -0.160719 1.99595
0.118757 -0.161594 2.00167
0.108107 -0.146757 1.89698
0.26184 -0.167528 2.06813
-0.616719 -0.298153 3.05247
0.0830059 -0.199303 2.31402
-0.775877 -0.315778 3.20453
-0.646771 -0.434352 4.10743
0.0698725 -0.43427 4.09253
0.103657 -0.331748 3.36985
-0.00975503 -0.0124687 1.99994
0.0335657 -0.0155131 1.94412
-0.664522 -0.414616 4.04424
0.0952315 -0.452489 4.31995
-0.795384 -0.309743 3.26243
0.0947016 -0.446815 4.30777
-0.777843 -0.302444 3.22653
0.147968 -0.314722 3.30405
-0.594777 -0.401032 4.0539
0.345963 -0.226749 2.65866
-0.612924 -0.280304 3.13129
0.338932 -0.224256 2.65501
-0.646087 -0.388692 4.04611
-0.0494556 -0.405434 4.17184
0.198735 -0.229377 2.71671
0.205546 -0.223155 2.66533
0.253883 -0.225309 2.68209
-0.640914 -0.380368 4.039
0.0889292 -0.174708 2.29451
-0.55672 -0.342548 3.80618
-0.0684679 -0.453683 4.76117
0.0863718 -0.481132 5.03978
-1.21785 -0.512753 5.49036
-1.1041 -0.469633 5.09652
-0.0871994 -0.355799 4.04184
-0.0551964 -0.0135738 2.1128
-0.679475 -0.354845 4.07994
0.237888 -0.16711 2.3368
-0.0918326 -0.0138591 2.08607
-0.615462 -0.220217 2.86315
-0.721213 -0.36665 4.34026
-0.61498 -0.20654 2.83999
-0.735742 -0.58463 6.71119
0.380972 -0.185507 2.65111
0.393714 -0.184969 2.6454
-0.676916 -0.24216 3.27488
-0.624607 -0.281182 3.67342
-0.818012 -0.550827 6.43927
0.0367629 -0.0169022 1.91832
-0.533205 -0.28209 3.71488
-0.701263 -0.139205 3.73114
-0.273324 -0.0896642 5.70641
-1.3078 -0.468378 5.78705
-0.630007 -0.264837 3.6387
-0.663145 -0.312251 4.15129
-0.768348 -0.51782 6.37278
-0.0836968 -0.432605 5.498
0.0824271 -0.315062 4.20805
0.215312 -0.110685 1.9686
-0.627661 -0.257425 3.62824
-0.626276 -0.258177 3.63655
0.012637 -0.591781 7.32379
0.23685 -0.127726 2.17009
0.0562764 -0.0312131 1.92419
-0.686535 -0.301272 4.24915
-1.21964 -0.613258 7.97321
-0.131459 -0.0138171 2.21872
-0.634241 -0.272916 4.00525
-1.03864 -0.494206 6.65281
0.233304 -0.128745 2.26669
-0.534426 -0.00913285 2.66817
-0.485419 -0.307758 4.57509
-0.472394 -0.302171 4.50505
-1.39117 -1.06054 13.9918
-1.21918 -1.06727 14.0719
-1.57887 -1.6908 21.8628
-1.56586 -1.70546 22.0455
-1.37276 -1.04276 13.9712
-1.36511 -1.08923 14.5602
-0.689121 -0.284087 4.3885
0.100951 -0.0986492 1.98096
-0.692934 -0.346909 5.33612
-1.05055 -0.440203 6.68024
-0.490568 -0.274181 4.47731
-3.05698 -2.45393 37.0374
-0.50511 -0.921196 14.3024
-0.989603 -1.38769 21.595
-0.347233 -0.601003 9.72271
-2.372 -2.72859 42.6219
-0.0951165 -0.280817 5.04165
-0.0852945 -0.282661 5.07029
0.209982 -0.106041 2.29665
-0.704995 -0.17354 3.47141
-0.711062 -0.169837 3.4603
-0.455241 -0.282792 5.33348
-0.844054 -0.34149 6.43217
-0.613681 -0.170036 3.56585
-0.714655 -0.26045 5.13845
0.102096 -0.0798102 1.98057
-0.772129 -0.281078 5.59686
0.0200237 -0.197634 4.095
0.117444 -0.174468 3.68123
0.0886763 0.0956055 2.10577
-0.865283 -0.15908 3.48782
0.182242 -0.114986 2.65971
-0.758077 -0.138929 3.16718
-0.565548 -0.234003 5.02042
-0.679095 -0.473007 9.77651
-0.883426 -0.234563 5.34597
-0.751891 -0.120424 3.11006
-0.909357 -0.262975 6.33449
-0.029312 -0.16472 4.21728
-0.778781 -0.140191 3.75659
-0.880565 -0.202494 5.22323
-0.697912 -0.202985 5.22935
-1.00435 -0.314813 7.86549
0.0742516 -0.0936872 2.63885
-0.880124 -0.199388 5.2743
-0.0760925 -0.0143511 2.32847
0.0123258 -0.0161308 2.31143
-0.110507 -0.00172445 1.60502
-0.702055 -0.110113 3.31355
-0.741205 -0.152304 4.43807
-0.865698 -0.20235 5.77443
-0.670129 -0.175387 5.05041
-0.721307 -0.126996 3.85709
-0.094455 -0.208019 6.06851
-0.0263382 -0.135587 4.0714
-0.654524 -0.140399 4.33733
-1.06082 -0.543546 16.3983
-0.480266 -0.32751 9.98824
-0.446636 -0.448181 14.0377
0.0642482 -0.102563 3.40322
-0.759937 -0.0917444 3.18066
-0.884617 -0.369118 12.0465
0.0683008 -0.0561746 2.01549
-0.0698311 -0.0214179 2.71927
-0.761277 -0.217483 7.45374
-0.110649 -0.001396 1.61274
0.0726702 -0.052789 1.98243
-0.571023 -0.0795832 3.02199
-0.756389 -0.121037 4.53385
-0.870178 -0.17679 6.5622
-0.926175 -0.332661 12.223
-0.00176996 -0.105283 3.9337
0.0289225 -0.0520523 2.00007
0.0622275 -0.0548023 2.09866
-0.571193 -0.0726401 2.94174
0.0189232 -0.07043 2.83013
0.0198916 -0.0533562 2.14826
-0.502952 -0.122086 5.59526
-0.701402 -0.130722 6.31945
-0.623231 -0.115085 5.83414
0.0241338 -0.0436663 2.00066
-0.0812686 0.00430442 1.61276
-0.484953 -0.0536339 2.78722
-0.528438 -0.0585905 3.09401
-0.861563 -0.123649 7.6128
-0.755475 -0.111747 6.81472
-0.614796 -0.0497 2.82509
-0.745214 -0.0723699 4.47877
0.11239 -0.0245509 1.97787
-0.232376 -0.0780843 5.71136
0.430038 -0.165001 13.3785
0.0423664 -0.0358115 1.94113
-0.571588 -0.0435097 2.86858
-0.000257014 -0.0240591 2.31786
-0.189736 -0.0233548 2.79159
-0.0335638 -0.0407778 3.05892
-0.000167049 -0.0377622 3.46002
-0.687045 -0.0381507 4.49045
-0.482762 -0.0307442 3.19889
0.0055856 -0.0305642 3.0014
0.0796606 -0.0279525 1.93948
0.0201625 -0.025668 2.08792
-0.454295 -0.08425 5.32406
0.221088 -0.111577 1.98091
-0.625667 -0.266867 3.63566
0.0754894 -0.215583 1.87363
0.151789 -0.21064 1.85491
0.1728 -0.215089 1.87065
0.102505 -0.327727 2.28641
0.173363 -0.209858 1.8698
0.168604 -0.202579 1.87072
0.171105 -0.203874 1.87568
0.0970103 -0.21091 1.90713
0.120108 -0.207404 1.90342
0.0942558 -0.210784 1.92411
-0.661837 -0.256836 3.56359
0.225934 -0.0931285 1.9698
-0.756 -0.0720773 4.52124
-0.108242 -0.00802863 1.90359
0.0957314 -0.405488 2.56258
0.0791985 -0.00777862 2.00374
0.0203813 -0.331085 2.30461
0.0609235 -0.335357 2.33514
0.0788225 -0.00883912 2.00146
0.063478 -0.00833674 2.02115
0.111386 -0.0114566 1.93527
0.0433407 -0.0120092 1.95258
0.0391414 -0.0124961 1.97285
0.102029 -0.0128153 2.00152
0.0732019 -0.313915 2.31744
0.0670276 -0.314541 2.32545
-0.0461726 -0.0139622 2.11332
0.106512 -0.309072 2.31437
-0.111972 -0.0143572 2.24267
-0.5228 -0.00746365 2.72391
0.0686239 -0.378619 2.64845
0.114429 -0.301746 2.32991
0.00770093 -0.392033 2.72036
-0.0341042 -0.392872 2.74042
0.0770034 -0.293686 2.32603
-0.0437728 -0.389417 2.74217
-0.0153621 -0.383188 2.71523
-0.0114247 -0.382426 2.72001
0.0239418 -0.387052 2.73943
0.0884279 -0.288067 2.33815
0.122786 -0.207009 1.99522
-0.621865 -0.427772 3.00877
0.109036 -0.203125 1.9868
-0.627048 -0.427547 3.01799
-0.0152228 -0.363739 2.72118
0.109144 -0.202261 1.98732
0.010946 -0.356886 2.70682
-0.036368 -0.350033 2.71047
-0.653481 -0.407518 3.00889
-0.59591 -0.411574 3.02747
-0.00799579 -0.343744 2.70705
0.108894 -0.173 1.8896
-0.651611 -0.40327 3.01002
0.0286127 -0.33704 2.6834
0.0883386 -0.190295 1.9818
-0.0211496 -0.335396 2.71233
-0.620653 -0.402885 3.08662
-0.638837 -0.383128 3.03335
0.14965 -0.255871 2.36875
0.100787 -0.181242 1.9851
0.112917 -0.162305 1.89188
-0.65617 -0.379315 3.0374
-0.653731 -0.369479 3.00949
-0.638028 -0.377627 3.05236
-0.600615 -0.373064 3.0278
-0.544217 -0.377153 3.07333
0.109635 -0.175363 1.98489
0.106981 -0.156729 1.88512
0.109654 -0.308441 2.70767
-0.555688 -0.373923 3.0812
0.109106 -0.173817 1.98711
-0.57462 -0.366967 3.08172
0.104303 -0.326773 2.85099
-0.577246 -0.364801 3.0827
0.0706619 -0.305187 2.74244
0.108858 -0.297714 2.70029
0.112193 -0.168191 1.98297
1.2398 -0.875585 5.9446
1.56845 -0.838837 5.73425
0.101037 -0.214116 2.2485
0.0971418 -0.16784 1.98668
-0.013934 -0.319925 2.86031
-0.610952 -0.353514 3.08544
0.0538773 -0.365206 3.14525
0.102004 -0.162882 1.98624
1.17297 -0.839349 5.9422
-0.567685 -0.348918 3.09928
0.00251749 -0.341825 3.06445
0.0965818 -0.223623 2.36826
0.107487 -0.142847 1.8836
0.087573 -0.310181 2.90031
0.114141 -0.230974 2.42129
0.0929566 -0.158821 1.98545
-0.604233 -0.350467 3.19682
0.128344 -0.269811 2.68954
1.33491 -0.694212 5.30015
0.0132548 -0.323454 3.03678
1.17109 -0.704671 5.39929
1.23938 -0.696031 5.34466
0.0562611 -0.301544 2.91305
1.16125 -0.864429 6.43599
-0.617867 -0.343649 3.20092
0.109966 -0.152171 1.98646
-0.538211 -0.332744 3.16184
-0.556349 -0.327951 3.14677
-0.0438415 -0.463879 4.04545
0.0711855 -0.277546 2.82584
0.109408 -0.149552 1.98854
1.19548 -0.728385 5.76066
-0.648826 -0.313749 3.0861
-0.556408 -0.327465 3.17546
0.012469 -0.270154 2.79115
0.0826533 -0.196205 2.30286
-0.0510165 -0.450792 4.02924
0.0723448 -0.265728 2.81439
0.127127 -0.300418 3.06614
0.0591952 -0.308031 3.15277
0.0852046 -0.186543 2.31222
-0.603834 -0.286943 3.06124
-0.6667 -0.427035 4.06848
-0.636611 -0.426155 4.06181
-0.0621126 -0.439154 4.14875
-0.616162 -0.283888 3.05599
0.387828 -0.220147 2.5826
0.420099 -0.223361 2.60554
0.285766 -0.228163 2.65504
0.182018 -0.227025 2.66123
0.364521 -0.23161 2.69304
-0.0732172 -0.423726 4.14363
0.0925145 -0.441876 4.27705
0.342409 -0.229042 2.68806
-0.723614 -0.401251 4.03599
-0.0296173 -0.402122 4.0349
0.194128 -0.223844 2.6785
0.0586103 -0.420181 4.19952
-0.635795 -0.268179 3.05948
0.0869421 -0.173033 2.31491
-0.701445 -0.394186 4.06328
-0.595206 -0.397645 4.08915
-0.578302 -0.401071 4.11575
-0.632454 -0.24347 2.90083
-0.578982 -0.257801 3.03134
-1.03553 -0.485289 4.85017
-0.647957 -0.387285 4.0645
-0.00741525 -0.390806 4.08554
-0.0176831 -0.39389 4.13951
0.211053 -0.336784 3.67709
0.373278 -0.212092 2.6711
0.375019 -0.212043 2.67068
-0.0143448 -0.386806 4.1117
-0.63111 -0.372983 4.0347
-0.728754 -0.372074 4.05751
-0.613598 -0.378461 4.10931
0.0761447 -0.214296 2.73848
0.123503 -0.486386 5.03741
-1.18619 -0.513906 5.36967
0.0636666 -0.488882 5.14168
-0.579133 -0.207956 2.79132
-1.16445 -0.463343 5.05951
-0.684162 -0.346336 4.01807
-0.659172 -0.349936 4.04968
-0.0774885 -0.36851 4.20797
0.0515409 -0.236753 3.0602
0.24112 -0.154147 2.31835
-1.17732 -0.454938 5.07053
0.110397 -0.11618 1.98849
0.0385594 -0.458099 5.13074
0.105303 -0.115215 1.99779
0.0709254 -0.236429 3.14403
-1.07956 -0.37234 4.50765
-0.597278 -0.342943 4.22034
0.0996873 -0.420227 5.0475
-0.750097 -0.581389 6.70949
-0.691465 -0.555936 6.45535
0.0490465 -0.224585 3.14716
0.0708866 -0.184281 2.74546
-0.614502 -0.323025 4.17142
-0.682924 -0.454564 5.49891
-0.628343 -0.266712 3.6341
-0.674199 -0.304506 4.02066
-0.648565 -0.314222 4.11965
-0.0600544 -0.392184 4.91005
0.252507 -0.123523 2.17476
-0.609772 -0.207153 3.07302
-0.779843 -0.481926 5.95536
0.0734918 -0.332989 4.3853
0.227776 -0.12105 2.16184
-0.605668 -0.216074 3.19246
-0.0815281 -0.414764 5.29785
0.0542038 -0.204789 3.06591
0.101822 -0.10264 1.98029
-0.00132854 -0.733324 8.78184
0.00200875 -0.290156 4.01058
0.12285 -0.24322 3.50404
-0.675272 -0.29493 4.10777
-0.97647 -0.528893 6.73947
-0.767683 -0.536859 6.9043
0.113376 -0.0981034 1.98382
-1.17608 -0.594487 7.73791
0.253584 -0.111764 2.15141
-1.27042 -0.591943 7.80456
-0.13335 -0.403582 5.58719
0.166088 -0.19872 3.1847
-0.48395 -0.315648 4.61044
0.162955 -0.19328 3.17893
0.165742 -0.193501 3.18157
0.00908065 -0.0128983 2.44174
-0.449421 -0.287503 4.3695
0.0974039 -0.120622 2.31964
0.217267 -0.145511 2.62344
-0.692367 -0.286781 4.41199
-0.652594 -0.222197 3.64588
-0.787554 -0.374752 5.57539
-0.126494 -0.428307 6.24606
-1.31434 -1.16397 15.7861
-1.32279 -1.36609 18.3821
-0.128334 -0.367404 5.61578
-0.611797 -0.170424 3.07964
-1.25843 -0.514528 7.65166
0.078525 -0.143895 2.72126
-0.598663 -0.208421 3.62374
-0.24344 -0.325488 5.33967
0.0178256 -0.216091 3.80956
-0.441189 -0.245605 4.33505
-0.112705 -0.313121 5.30919
-1.27201 -0.83296 13.0564
0.25228 -0.0946882 2.16239
-1.31887 -2.01463 31.0222
0.115741 -0.0747414 1.88211
-1.27558 -1.85652 29.1729
0.157129 -0.158151 3.17114
-0.799986 -0.18856 3.74138
-0.714042 -0.153317 3.34992
-0.732224 -0.182123 3.84812
-0.783185 -0.210297 4.33565
0.132823 -0.18573 3.90366
0.226038 -0.111662 2.6223
-0.71462 -0.252028 5.1416
-0.717101 -0.254541 5.18604
-1.06628 -0.647036 12.125
0.183765 -0.114684 2.70745
0.11272 0.00328793 2.0044
-0.711207 -0.146988 3.3321
-1.88876 -1.10843 20.7163
0.180317 -0.111042 2.70976
0.230005 -0.0822928 2.17781
-0.1252 -0.337507 7.17577
0.142451 -0.242822 5.33811
-0.757632 -0.501161 10.5805
-1.21747 -0.336833 7.47402
-0.885293 -0.227603 5.35141
-1.42117 -1.11787 23.9708
-0.967496 -0.273477 6.44807
-0.960643 -0.419729 9.81963
-0.728317 -0.214747 5.411
-0.0236746 -0.187654 4.79189
-0.7035 -0.138331 3.74874
0.0800975 -0.00394568 1.94133
-0.880827 -0.199738 5.30348
-0.664813 -0.16462 4.45734
0.0481521 -0.004273 1.93267
0.168022 -0.091403 2.69108
-0.719646 -0.131773 3.82453
-0.705156 -0.131563 3.81908
-0.0237919 -0.169153 4.77795
-0.90929 -0.262606 7.58305
-0.693255 -0.546727 15.8556
-0.743176 -0.139732 4.44204
-1.29099 -0.664355 19.8506
0.0044348 -0.0856128 2.84985
0.0389279 -0.0906326 2.99713
0.0418216 -0.00449393 1.92647
-1.03864 -0.238913 7.58998
-0.728403 -0.183085 5.88685
-0.87351 -0.172785 5.7462
-1.04121 -0.444112 14.3471
-0.670525 -0.0926136 3.37586
-0.537725 -0.160181 5.70192
-0.186894 -0.204828 7.23833
0.0308879 -0.173373 6.15488
0.0759343 -0.0520619 1.97803
-0.929231 -0.348121 12.6671
-0.457048 -0.20916 7.66631
0.040603 -0.172515 6.34695
0.0748285 -0.051072 1.97725
-0.569678 -0.0761773 2.96034
-0.902677 -0.178098 6.80092
-0.0309036 -0.0910308 3.5194
0.00225789 -0.0834067 3.23209
0.0591485 -0.05206 2.05094
0.0252424 -0.0062824 1.9005
-0.495438 -0.122343 5.51079
0.241063 -0.0525709 2.27178
-0.637866 -0.078671 3.62234
-0.705801 -0.134151 6.3578
0.0240501 -0.060803 2.74311
0.0176038 -0.0495491 2.18818
-0.519546 -0.0643848 3.03045
-0.812699 -0.0978572 4.78841
-0.743502 -0.0893476 4.56162
-0.572002 -0.0811162 4.09943
0.118199 -0.0407809 1.88159
-0.436029 -0.0963997 5.57448
-0.572709 -0.0538346 2.92672
-0.600167 -0.0954832 5.89709
-0.484374 -0.0857991 5.20753
-0.45814 -0.0935528 5.76084
-0.171678 -0.0715389 4.19354
-0.131703 -0.0744825 4.40391
0.0375013 -0.0398561 1.93584
-0.0974741 -0.0152716 2.27038
-0.289236 -0.0667776 4.11195
-0.0591318 -0.0707284 4.42424
0.0402462 -0.0361941 1.93563
-0.512427 -0.0414424 3.00257
-0.0386309 -0.0459478 3.71265
-0.025436 -0.0395072 3.08495
0.012531 -0.0353213 2.29031
-0.622986 -0.0392253 3.56078
0.0222212 -0.0330745 2.06904
0.0331577 -0.0353756 3.29983
0.11889 -0.031447 1.88092
0.0504477 -0.0307032 1.93591
-0.106875 -0.0152734 2.2706
-0.0112435 -0.0300432 2.88863
0.00244759 -0.0300299 2.85298
0.0503623 -0.0297878 1.9353
0.000948446 -0.0250451 2.51023
0.0718622 -0.027031 1.93677
-0.106667 -0.0227458 2.65901
-0.0819244 -0.0206425 2.70472
-0.0641127 -0.0212017 2.61051
-0.0390158 -0.0210057 2.64138
-0.230599 -0.0195598 2.39926
-0.177599 -0.0163885 2.29113
-0.118817 -0.0168931 2.24763
-0.194511 -0.0155316 2.25486
-0.172715 -0.0152876 2.27207
-0.170175 -0.0154313 2.26135
-2.0151 -1.65998 47.3943
0.0986712 -0.178162 1.98949
1.2007 -0.840412 6.04814
0.130614 -0.314373 2.33142
0.103969 -0.30837 2.31434
0.135561 -0.311807 2.33663
0.121496 -0.202016 1.92675
0.101112 -0.295691 2.29553
0.114181 -0.18232 1.90257
0.107586 -0.167523 1.89253
0.107858 -0.160163 1.89056
0.107332 -0.158818 1.89151
0.388734 -0.171846 2.54405
0.249657 -0.118915 2.15589
0.253092 -0.110921 2.15289
0.255586 -0.096252 2.16314
0.255969 -0.0929849 2.16422
0.0762232 -0.043277 1.94709
0.11961 -0.0422279 1.88202
0.120107 -0.0315936 1.88102
-1.28471 -1.33383 20.7
-0.860262 -1.22549 19.4113
0.080643 -0.00362521 1.93116
-0.2264 -0.253506 8.77701
-2.24986 -1.04684 40.66
-0.834325 -0.627291 26.8257
2.07734 6.64542 74.9792
0.0210013 -0.011492 2.07131
0.018448 -0.390963 2.72858
-0.0400668 -0.391796 2.74047
0.0993537 -0.274756 2.26742
-0.623899 -0.435548 3.02678
-0.00575067 -0.36447 2.71663
0.110993 -0.367578 2.75177
-0.0476022 -0.35127 2.69882
-0.0331157 -0.351623 2.70807
0.0229959 -0.0105631 2.15082
-0.0403644 -0.349124 2.70503
0.00596198 -0.356187 2.73586
0.0892784 -0.188318 1.98745
0.0982729 -0.241224 2.2444
0.0953528 -0.18454 1.98633
0.0257785 -0.0180589 1.98869
-0.657962 -0.412471 3.08295
0.028261 -0.327232 2.67612
-0.618413 -0.405848 3.07202
0.12177 -0.182782 1.99869
-0.191731 -0.0127892 2.25222
0.106709 -0.254835 2.37738
0.108389 -0.173615 1.98039
-0.646262 -0.385717 3.06136
-0.635616 -0.375848 3.0561
-0.588184 -0.38748 3.11481
-0.984203 -1.44743 8.56215
0.0674268 -0.313354 2.72095
-0.54547 -0.377907 3.07632
-0.592869 -0.37251 3.08431
0.0300434 -0.365751 3.04747
0.110123 -0.324852 2.84986
0.100426 -0.21033 2.23472
0.0911812 -0.163521 1.9834
-0.602475 -0.356614 3.07142
0.04274 -0.352281 3.03411
0.0895571 -0.221526 2.32328
0.115406 -0.159202 1.9835
1.50094 -0.834649 5.70983
1.5039 -0.805483 5.5476
-0.0368852 -0.281869 2.68839
-0.583131 -0.356279 3.1458
0.0821627 -0.302795 2.84825
-0.562077 -0.345016 3.12035
0.11511 -0.269144 2.66237
1.30185 -0.856588 6.10592
0.0430188 -0.0047422 1.9235
0.0907979 -0.205399 2.31308
-0.620912 -0.324258 3.05197
-0.61925 -0.322343 3.05372
-0.620468 -0.345592 3.20941
-0.608377 -0.342901 3.19269
0.00195216 -0.32614 3.07694
1.30699 -0.699916 5.3335
1.21137 -0.706758 5.40916
0.101732 -0.145678 1.98238
-0.556599 -0.326068 3.16042
-0.030304 -0.476039 4.10208
-0.553355 -0.326004 3.17498
0.121046 -0.310681 3.06187
0.0726864 -0.268578 2.80544
-0.674852 -0.444083 3.99952
0.123278 -0.303927 3.06153
0.11079 -0.331017 3.35956
0.09302 -0.181626 2.31929
-0.724275 -0.424405 4.07783
-0.638455 -0.421287 4.05376
0.0645213 -0.285949 3.09423
-0.0696492 -0.428006 4.13912
0.195031 -0.224563 2.67724
0.212786 -0.224621 2.67725
-0.664018 -0.408964 4.09145
-0.600763 -0.402145 4.03938
-0.725141 -0.407901 4.11121
-0.692744 -0.399525 4.04773
-0.0438001 -0.423768 4.29903
0.187907 -0.294718 3.29917
-0.588118 -0.397731 4.13884
-0.609638 -0.259375 3.08038
-0.00394099 -0.400836 4.17733
0.168588 -0.306778 3.43421
0.109471 -0.296535 3.37581
0.0721886 -0.212685 2.71136
-1.10755 -0.49005 5.01446
-0.733564 -0.373096 4.05859
0.177387 -0.201359 2.64622
-0.612816 -0.250748 3.08339
0.00469063 -0.372591 4.0649
0.0396103 -0.254739 3.10018
0.0922525 -0.157599 2.30443
0.221349 -0.162328 2.33998
-0.746961 -0.364178 4.04256
-0.691768 -0.361178 4.07408
-0.623357 -0.235735 3.03239
-0.617904 -0.343021 4.00523
0.108996 -0.113437 1.98653
-1.17737 -0.463328 5.10916
-0.0321613 -0.376819 4.3183
0.0639434 -0.241089 3.12011
-1.16463 -0.453711 5.06572
0.0708889 -0.234099 3.11935
-0.10324 -0.0149588 2.27336
0.0735175 -0.229947 3.1236
-0.643965 -0.321867 4.03116
-0.56334 -0.264174 3.51108
0.183813 -0.178479 2.67353
-0.64899 -0.276456 3.68797
-0.679644 -0.452209 5.40779
-0.0218594 -0.300128 3.90303
0.041555 -0.388432 4.76505
-0.6517 -0.254449 3.52768
-0.731485 -0.586839 6.86249
-0.736556 -0.578283 6.84662
-0.0203485 -0.277056 3.76885
0.0483584 -0.214563 3.13247
-0.170085 -0.0151886 2.25566
0.0264103 -0.019698 2.05574
-0.642198 -0.427425 5.36414
0.0597584 -0.277254 3.80082
0.211846 -0.161034 2.60144
-0.635752 -0.21737 3.22863
0.159345 -0.228093 3.31885
-0.610589 -0.210745 3.2091
0.040013 -0.352471 4.70745
-0.0715727 -0.422544 5.51692
-0.678873 -0.473856 6.22408
-0.00268422 -0.0146236 2.38219
0.0729228 -0.0232143 1.93861
0.185037 -0.15633 2.68052
0.102514 -0.0934028 1.98154
-0.993502 -0.477132 6.48688
0.159277 -0.209268 3.36852
0.165238 -0.194137 3.18973
-0.695706 -0.294943 4.49939
-0.450139 -0.285934 4.38264
-1.25238 -1.39637 18.1706
0.113852 -0.351103 5.21896
-1.22121 -0.846833 11.5401
-0.620255 -0.205824 3.51498
0.223074 -0.137188 2.61491
-0.141139 -0.380608 5.8007
-0.040698 -0.329861 5.14034
0.22514 -0.135025 2.60857
-1.12322 -0.464299 7.00704
-0.893282 -0.602824 8.82396
0.0103368 -0.27381 4.51788
-0.237571 -0.313183 5.18343
-0.209099 -0.298136 4.97411
0.0538195 -0.0240111 1.9397
-0.250165 -0.428738 6.98222
0.0414067 -0.0239838 1.94091
-0.704097 -0.165468 3.32894
-0.990299 -0.262023 4.80277
0.15408 -0.158695 3.19801
-0.718903 -0.17505 3.5171
-0.618459 -0.172671 3.61206
-0.699074 -0.266299 5.15161
-1.00997 -0.434381 7.92114
-0.829914 -0.270068 5.30041
-0.715317 -0.151223 3.34804
-0.793347 -0.405789 7.70825
0.0586324 -0.138758 3.10741
0.188871 -0.114161 2.68178
-0.703167 -0.251516 5.14709
-0.692394 -0.249508 5.11158
-1.19523 -0.736011 13.6395
-0.810654 -0.340867 7.09537
0.18893 -0.105364 2.68205
-0.84137 -0.226424 5.13415
-0.668434 -0.463868 9.79166
0.260098 -0.102345 2.68947
-0.678083 -0.299081 6.82765
-1.08587 -0.85082 18.2423
-0.908903 -0.935443 19.9835
-0.02358 -0.195389 4.84405
-0.137436 -0.0072578 1.98815
-0.700574 -0.140159 3.73532
0.0313964 -0.133282 3.55077
-0.891012 -0.208005 5.37746
-0.895426 -0.199624 5.30022
-0.688186 -0.126974 3.71145
-0.668437 -0.156005 4.44293
0.00784631 -0.230589 6.29391
-0.774468 -0.307338 8.493
-0.831223 -0.260324 7.68837
-0.716859 -0.187314 5.80586
-1.30483 -0.651686 19.9172
-0.999818 -0.200959 6.5976
-0.875383 -0.369935 12.2789
-0.825554 -0.156255 5.52741
-0.902073 -0.192137 6.74293
-0.370653 -0.167552 6.08652
-0.402934 -0.128877 5.05844
-0.032551 -0.0882468 3.46489
0.0242715 -0.00681641 1.89199
-0.726222 -0.162949 6.65543
0.0233898 -0.070671 2.85854
-0.699149 -0.15001 6.38748
0.225928 -0.0561688 2.3677
-0.467412 -0.114232 5.26763
-0.00253373 -0.067487 2.99266
-0.505862 -0.0585141 2.88804
-0.654623 -0.0820191 4.27521
-0.0697685 -0.020849 2.63441
-0.0827421 -0.0204482 2.68306
0.0385008 -0.0426361 1.96313
-0.63806 -0.0650034 3.62069
-0.635082 -0.091908 5.46346
-0.489367 -0.0895136 5.28513
-0.149413 -0.0835452 4.8429
-0.569809 -0.0876966 5.53292
-0.230455 -0.0766964 4.67267
0.0281658 -0.041642 2.01858
-0.646779 -0.0537833 4.02942
0.0462198 -0.037291 1.93951
0.075732 -0.00641688 1.96676
-0.609305 -0.036358 3.8859
-0.258722 -0.0349633 3.00234
-0.258194 -0.0354262 3.22495
0.0786601 -0.0273737 1.93797
-0.0384365 -0.0331553 3.09384
-0.186376 -0.0305262 3.50147
0.0740392 -0.0273544 1.94008
-0.107022 -0.00861393 1.90348
-0.105288 -0.0222719 2.6696
-0.590891 -0.306711 2.67689
0.0506461 0.00364458 1.16256
0.195214 -0.137076 1.49109
0.0512643 -0.00256014 1.16168
0.199758 -0.142021 1.54727
0.214124 -0.116492 1.53467
0.173051 -0.117749 1.56089
0.0549213 0.013371 1.16338
0.0507403 0.0107747 1.17904
0.063565 -0.0299509 1.1665
-0.493511 -0.0455297 2.37876
0.0603111 -0.0247635 1.18263
0.0589182 -0.0224457 1.18619
0.056581 -0.0205594 1.17903
0.0577181 -0.0149657 1.15658
0.052069 -0.00487607 1.17917
0.0510912 -0.00506372 1.16451
0.111761 -0.291905 1.86372
0.104093 -0.280933 1.8465
0.10801 -0.277019 1.84628
-0.538139 -0.373921 2.28851
-0.542418 -0.365095 2.29035
0.0461434 -0.00273419 1.24012
-0.565606 -0.24241 2.311
1.17853 -0.746871 7.08744
-0.617427 -0.283058 3.60142
0.467561 -0.181954 2.55786
0.246207 -0.133052 2.06989
0.527522 -0.142978 2.35891
0.0460881 -9.39308e-05 1.26258
0.0817898 -0.041863 1.41969
-0.552354 -0.0492674 2.29795
0.0465365 -0.00670131 1.2682
0.0567661 -0.0279445 1.23513
-0.487435 -0.0334392 2.17986
0.0479078 -0.00839383 1.24913
0.0535749 -0.0232178 1.24762
-0.510057 -0.0197103 2.23285
-0.473122 0.00167354 2.13174
0.0488864 -0.0131208 1.29716
0.0803 -0.0429055 1.42786
0.0913079 -0.267953 1.86907
0.0644401 -0.366667 2.30897
0.101148 -0.255901 1.86223
0.0932515 -0.25699 1.87332
-0.516138 -0.33077 2.33804
0.0883934 -0.245056 1.89952
-0.620092 -0.422804 2.9871
0.371776 -0.244881 2.09097
0.0430912 0.00346929 1.40465
-0.679285 -0.321669 2.73085
0.0296464 -0.376633 3.0608
-0.0293991 -0.507339 4.12534
0.0914936 -0.185103 1.99801
0.109565 -0.168968 1.89012
0.0776325 -0.426807 4.43715
0.37585 -0.160499 2.06742
-0.654643 -0.258207 3.13199
-0.530039 -0.17282 2.34259
-0.613493 -0.242789 3.06244
0.357346 -0.148502 2.05904
0.368025 -0.146892 2.05784
0.0429011 -0.222415 3.16652
-0.481539 -0.00218611 2.22771
0.111806 -0.266997 1.88153
0.417757 -0.103269 2.21959
0.344548 -0.0875424 2.03224
0.0835456 -0.0492597 1.39898
0.338786 -0.0825996 2.09098
-0.683811 -0.0966528 2.74141
0.0774901 -0.0938893 2.66684
0.113483 -0.0412084 1.46636
0.0874702 -0.0383047 1.45614
0.0579263 -0.00110341 1.40389
0.0576869 -0.034176 1.39037
-0.767805 -0.0741146 4.589
0.0631231 -0.0197333 1.37948
-0.479239 -0.03226 2.22543
0.0475908 -0.0225896 1.41621
0.0784794 -0.250026 1.88484
-0.534285 -0.354564 2.41535
0.114791 -0.247138 1.8826
0.113227 -0.245463 1.88106
0.102251 -0.241674 1.8697
-0.116606 0.00163845 1.64073
-0.490602 -0.317894 2.32986
0.0939467 -0.320419 2.33982
-0.492647 -0.314811 2.34334
-0.0928957 0.00798499 1.43746
-0.610784 -0.344235 2.62737
-0.11586 0.0030754 1.65566
-0.688422 -0.37911 2.86603
0.166337 -0.200717 1.86773
-0.0128356 0.0143644 1.61385
-0.604992 -0.312899 2.60234
-0.603578 -0.313351 2.60501
0.0486838 -0.0247804 1.40316
0.0521426 -0.0196391 1.39173
0.0456912 -0.0107829 1.39739
-0.0994898 0.00444661 1.34237
1.89987 -1.30903 9.41161
0.119844 -0.254279 2.57699
0.0468827 0.00766185 1.39967
0.0623651 -0.264299 2.71006
0.0339818 0.00854884 1.5744
0.035103 0.00728698 1.56632
0.287357 -0.217348 2.61322
0.261757 -0.149979 2.00591
-0.694489 -0.339784 3.9921
-0.132084 -0.00862645 1.57019
0.501186 -0.188374 2.62616
-0.799819 -0.400191 5.66427
0.223578 -0.113929 1.96999
0.0501024 -0.033038 1.40796
-1.96355 -3.32198 51.3453
0.24434 -0.0900609 1.8475
-0.582915 -0.188509 3.5369
-0.112244 -0.00105177 1.61548
-0.765238 -0.275147 5.48562
0.065743 0.000705446 1.4143
0.17001 -0.121275 2.94101
0.171927 -0.105023 2.69432
0.0587634 -0.0447878 1.4016
-0.0947952 -0.0136486 2.18811
-0.490815 -0.0158451 2.79154
0.028782 -0.021202 1.93548
0.0752695 -0.375414 2.49237
0.079425 -0.23816 1.89266
-0.716305 -0.140297 4.0844
0.146491 -0.228614 1.86229
0.118919 -0.23098 1.91026
-0.471741 -0.300544 2.33784
0.107961 -0.220894 1.90073
0.0974704 -0.288986 2.29286
0.0539895 -0.047425 1.46741
-0.524936 -0.0266894 3.06535
-0.0473897 -0.0127059 2.10481
-0.0966897 -0.0027591 1.68735
0.181543 -0.110353 2.75815
0.0108506 0.0230616 1.69081
-0.572325 -0.0468022 2.91588
-0.636804 -0.292465 2.8681
0.0426675 0.00628315 1.5167
-0.754058 -0.137283 3.10685
1.21788 -0.623222 5.49159
0.0749067 -0.0031022 1.94124
0.0306148 -0.00457996 1.91794
-0.170399 -0.0146716 2.25611
0.261996 -0.225374 2.66754
-0.760844 -0.139287 3.09175
-0.492406 -0.0435149 2.37499
-0.696959 -0.171091 3.48483
0.0241485 -0.00580214 1.92718
0.00391532 -0.00802688 1.84799
0.0688581 -0.00733159 2.07021
0.0774162 -0.0429876 1.95426
-0.0298172 -0.0101763 1.74955
0.183785 -0.143644 2.82435
0.0734602 -0.1466 2.76422
-0.0352775 -0.00892473 1.86229
0.0690813 -0.0106136 2.0548
-0.0841009 -0.228434 6.6786
0.112985 -0.102702 1.98634
0.00908702 -0.0235464 2.55067
0.0358911 -0.448219 2.73619
-0.562671 -0.0204562 2.85806
0.0801382 -0.354554 2.33883
0.111598 -0.0614422 1.98507
0.0485468 -0.339932 2.32505
0.0782855 -0.0243667 1.94759
0.16878 -0.215169 1.86704
0.152303 -0.209299 1.85713
0.0785146 -0.209893 1.87086
0.169859 -0.209626 1.86559
-0.701397 -0.120243 3.38551
0.121035 -0.206662 1.90475
-0.175176 -0.0164244 2.26817
0.0133121 -0.0175534 2.29793
0.0616004 -0.0298754 1.93798
0.0498454 -0.031169 1.93342
0.0836228 -0.24778 2.30318
-0.518221 -0.0438644 2.86562
0.124511 -0.18822 1.94683
0.124136 -0.180698 1.94392
0.0465223 -0.289346 2.84667
0.0340882 -0.215444 4.48109
-0.644119 -0.27428 2.86698
-0.788182 -0.290594 5.88043
-1.2753 -0.794576 14.583
0.0300026 -0.0422082 2.00739
-0.741063 -0.447358 5.85594
0.140212 -0.243383 3.36627
0.220368 -0.142278 2.17657
-0.951216 -0.509588 15.2582
-0.724673 -0.347342 11.6725
-0.0735203 -0.0231518 2.62516
0.250789 -0.117139 2.15683
-0.70592 -0.186752 5.79547
0.0750373 -0.024335 1.94386
0.0877758 -0.33305 2.33629
-0.721127 -0.131305 3.84886
0.113544 -0.31356 2.32338
0.0849725 -0.301996 2.32344
0.233429 -0.168982 2.34751
-0.651312 -0.40236 3.01134
0.0366025 -0.0553351 1.99397
0.0384843 -0.407907 4.7562
-0.717317 -0.278929 5.24833
0.243522 -0.123829 2.17942
0.11239 -0.205786 1.9868
0.122018 -0.196951 1.93008
0.0344289 -0.0282764 1.9357
-0.626301 -0.362446 3.05437
0.0661861 -0.22374 2.73098
0.0684001 -0.220256 3.13928
-0.0292232 -0.224885 5.06868
-0.187165 -0.0148305 2.17553
-0.651682 -0.291241 3.97939
-0.0178928 -0.288679 3.81352
0.352007 -0.22753 2.66034
0.00984565 -0.0851817 2.7683
0.202184 -0.134849 2.35743
-0.657488 -0.412425 3.08502
0.151264 -0.245064 3.38474
-0.618955 -0.369839 3.0476
-0.739959 -0.186062 3.87964
1.2373 -0.69377 5.33171
-0.00163667 -0.343343 3.04638
1.17022 -0.902445 7.13194
0.114998 -0.328987 3.09993
0.111906 -0.0526759 1.98703
-0.132261 -0.0132222 2.2301
-0.0201186 -0.147568 4.66278
0.114448 -0.167836 1.98931
0.0978994 -0.167531 1.9878
-0.628125 -0.208066 3.19144
0.0938228 -0.490766 5.10362
-0.387006 -0.239221 8.059
-1.02659 -0.665921 10.5705
-0.0804356 -0.406904 5.26571
-0.655108 -0.0912481 5.64766
-0.095669 -0.0207661 2.67732
0.0477372 -0.222868 3.13742
0.359118 -0.228836 2.67169
-0.084544 -0.399398 5.11759
-0.773737 -0.531909 6.67459
-0.837187 -0.257889 8.16363
-0.86853 -0.473326 6.01725
-1.13829 -0.587058 17.5533
-0.1389 -0.429611 5.97842
-1.34755 -1.00841 13.5755
-0.819128 -0.27349 8.34686
0.0202714 -0.205937 4.22317
-0.741206 -0.599678 16.6865
-0.612312 -0.302529 3.06748
0.174756 -0.22669 2.66392
-0.0118612 -0.387741 4.13084
-0.149335 -0.357078 5.59345
0.207939 -0.13378 2.36897
-0.0126795 -0.395714 2.7162
0.0193096 -0.400687 2.74022
-0.0296172 -0.333949 5.17701
-0.602165 -0.210655 3.22136
-0.617034 -0.0900956 3.22328
0.0114842 -0.389288 2.71903
-0.696138 -0.363134 4.10027
-0.658175 -0.385951 4.11802
-0.0342164 -0.388654 2.72994
-0.932548 -0.399096 6.16841
-0.862475 -0.163565 5.68209
-0.0119487 -0.0257716 2.61142
-5.21801 -4.19493 63.7849
-0.721188 -0.131365 6.44421
-0.606198 -0.423992 3.00758
-1.07884 -1.19381 15.4563
-0.148124 -0.299311 5.07774
-0.586637 -0.31332 4.04234
-1.01967 -0.293854 7.93863
-0.659463 -0.157136 4.39929
0.203422 -0.134525 2.35289
-0.672684 -0.335461 4.19755
-0.491137 -0.117262 5.40414
-0.444216 -0.099148 5.67719
-0.71047 -0.572689 6.63619
-0.683615 -0.458536 5.44079
0.00933101 -0.358627 2.72132
-0.6999 -0.163764 3.30534
-0.563378 -0.0876771 5.37935
-0.0412401 -0.349769 2.70009
-0.456175 -0.282157 4.4332
-0.945638 -0.40845 6.20591
-0.626683 -0.405564 3.11027
-0.0013264 -0.0795073 2.82803
-0.497541 -0.0924553 5.29814
-0.00733482 -0.405203 4.17419
-0.521186 -0.0606875 3.07339
0.00206675 -0.374279 5.06775
-0.687704 -0.124951 3.27186
-0.017271 -0.333806 2.70258
-1.47117 -1.31794 19.6633
-0.593846 -0.275195 3.07394
-0.632777 -0.114928 5.92715
-0.735733 -0.381628 3.97811
-0.755423 -0.142014 6.02085
-0.629297 -0.431078 4.04908
1.19421 -0.853567 6.02099
1.21792 -0.826948 5.85171
-0.551273 -0.369384 3.05938
-0.0414088 -0.427615 4.29588
-0.573536 -0.40204 4.10908
1.31345 -0.864475 6.12656
1.41544 -0.869698 6.15512
0.236864 -0.135219 2.33321
-0.572128 -0.369004 3.07595
-0.702112 -0.396269 4.06744
-0.984102 -0.39327 7.20546
-0.592287 -0.39887 4.04846
-0.571278 -0.365632 3.07241
-0.714111 -0.402422 4.08575
-0.610587 -0.256825 3.62046
-0.530989 -0.362793 3.07044
-0.450171 -0.10648 5.74832
-0.204139 -0.193369 7.02803
0.0946891 -0.164288 1.98555
0.0670739 -0.307626 2.71336
-1.20253 -0.909928 19.9828
-0.60295 -0.354365 3.07421
0.107413 -0.324296 2.83885
0.152093 -0.159493 3.18771
-0.767473 -0.356989 8.1088
-0.0229317 -0.0661863 4.02926
-0.0751429 -0.427034 4.14996
-1.53701 -1.36713 18.467
1.22254 -0.698355 5.4028
-0.603038 -0.441047 4.06197
-0.56071 -0.34161 3.10178
0.00149481 -0.339909 3.06146
-0.0320635 -0.391929 4.41452
-0.602266 -0.346462 3.17975
-0.487958 -0.289121 4.4688
-0.681488 -0.482925 10.0463
-0.63431 -0.325969 3.07504
-0.0667266 -0.472145 4.11268
-0.185858 -0.0722867 4.2303
1.32392e-06 -0.253116 4.35833
-0.547555 -0.336266 3.18911
-0.646179 -0.411168 4.05282
-0.0832431 -0.458932 4.10746
-0.0835145 -0.366977 4.17611
-0.613133 -0.314194 3.07044
-0.559939 -0.330504 3.19117
0.0703263 0.0252823 0.53826
0.0720576 0.0202857 0.530988
-0.561183 0.040283 1.64936
0.0751547 -0.0179049 0.519951
0.069982 0.0110713 0.535626
0.0729109 0.0103364 0.532324
0.0793754 -0.0292271 0.549152
0.0766048 0.00801967 0.51209
0.0727447 0.00839471 0.536052
0.0731884 0.0061894 0.519971
-0.526205 0.0168423 1.58177
-0.487079 0.015473 1.45312
0.146519 -0.176976 0.814486
0.145309 -0.174717 0.813469
0.141762 -0.189943 0.894797
-0.529881 0.0149651 1.59282
0.141799 -0.18663 0.895029
0.0718576 0.00408564 0.50152
0.0712159 -0.0131815 0.539855
0.146566 -0.165808 0.814744
0.147725 -0.164934 0.815467
0.140925 -0.14245 0.704302
0.148828 -0.163994 0.815871
0.072366 -0.0131428 0.53827
0.146971 -0.163197 0.816999
0.296673 -0.18106 1.1164
-0.612106 0.00332249 1.76626
0.0706961 -0.000994392 0.530834
0.06989 -0.000992445 0.529803
0.155492 -0.097353 0.709913
0.159078 -0.105042 0.795023
0.150413 -0.0986973 0.747004
0.149724 -0.0896541 0.712319
0.0710713 -0.00438302 0.538758
0.0701126 -0.00436566 0.536627
0.150597 -0.0860706 0.712194
0.151789 -0.0826623 0.713571
0.0641404 0.027385 0.615891
-0.432223 -0.113195 5.47756
-3.73681 0.548831 13.4849
0.0686694 0.0205618 0.643769
0.0537814 -0.0912469 2.74934
-0.0794054 -0.166946 5.03017
-0.572847 0.041583 1.7026
0.0646406 0.0153113 0.660743
0.0731505 -0.0213427 0.619765
0.122613 -0.0395146 1.23734
0.0683336 0.00926422 0.591608
-0.381334 -0.090906 4.68278
-0.16624 -0.18902 6.42224
0.0666915 0.00803429 0.610771
-0.597295 0.0238858 1.81615
0.0738946 -0.0228832 0.619443
0.0696994 0.00702853 0.590524
0.067477 0.00752888 0.632592
0.171255 -0.297912 1.26197
0.0783261 -0.279914 1.20491
-0.55314 0.0181164 1.70148
0.0938124 -0.274754 1.18911
0.0739009 -0.0244368 0.619495
0.125339 -0.285454 1.24895
0.0746322 -0.271507 1.19448
0.162794 -0.281656 1.24599
0.0659013 0.00548163 0.583303
0.0991781 -0.269652 1.19953
0.162612 -0.279781 1.24459
0.172899 -0.283771 1.26234
0.0697714 -0.264248 1.18874
0.11849 -0.272755 1.22701
0.173676 -0.279296 1.25643
0.0924541 -0.138377 2.48295
0.0609972 -0.262772 1.22346
0.0716392 -0.0114134 0.588089
-0.529981 0.0150823 1.6053
0.139352 -0.183022 0.893834
0.0720282 0.00476661 0.585216
0.140551 -0.179754 0.894281
0.0652079 0.00480853 0.590359
0.115332 -0.246746 1.24306
0.0574782 0.00833106 1.02329
0.130427 -0.242518 1.23738
0.132571 -0.170811 0.871509
0.104111 -0.240483 1.25918
0.149784 -0.155742 0.815465
0.153019 -0.172271 0.907967
0.146888 -0.154924 0.816534
-0.544061 0.0135747 1.66708
0.0723016 -0.235703 1.25892
0.0557827 0.00716353 1.03985
0.147404 -0.15239 0.819405
0.0250859 -0.0747058 2.33923
-0.532653 0.0108354 1.92212
-0.640007 0.010527 1.86718
0.159373 -0.142854 0.811865
0.161701 -0.144014 0.818461
-0.690325 0.0089639 2.0441
-0.0266396 -0.108027 3.83352
0.149277 -0.136816 0.818327
0.153143 -0.133755 0.806051
0.120074 -0.200098 1.24341
-0.601665 0.0012496 1.98985
0.152942 -0.126522 0.804992
0.0719061 -0.0111804 0.615808
0.151366 -0.126094 0.835562
-0.859099 -0.356974 2.42596
0.153104 -0.113536 0.805847
0.153075 -0.112506 0.805693
0.149138 -0.113928 0.823264
0.140963 -0.0594923 1.23387
0.142912 -0.11027 0.811519
0.150437 -0.11206 0.824689
0.0401219 -0.413613 4.89283
0.150812 -0.106127 0.826744
0.150608 -0.102174 0.81995
0.149391 -0.101024 0.818952
0.151453 -0.10102 0.818921
-0.40793 -0.100449 4.58308
-0.650147 -0.0257969 3.16906
0.0345438 -0.311843 2.60739
0.157886 -0.0974466 0.814768
0.151722 -0.0950349 0.820376
0.158633 -0.0932001 0.813329
0.151669 -0.0929473 0.820086
0.158394 -0.0926418 0.81739
0.144877 -0.137513 1.24072
0.158978 -0.0868186 0.820404
0.120507 -0.203372 1.96838
0.071361 -0.00762176 0.579796
-0.577171 -0.189231 1.92491
0.0741877 -0.265351 2.73395
0.139433 -0.114139 1.20715
1.11408 0.39091 3.37472
-0.466461 0.0694592 1.56226
-0.630245 -0.0453848 2.33821
0.0681155 0.0254961 0.646225
0.0752791 0.0318604 0.834057
0.115472 -0.038186 1.19574
0.121042 -0.0411029 1.28707
-0.46835 -0.304969 4.55171
-0.688294 -0.147702 4.4505
0.178416 -0.0906872 0.998801
-0.866554 -0.244968 7.11277
-0.715599 -0.265902 3.6926
0.218924 -0.10549 1.41567
-0.376876 -0.0963604 6.15474
-0.565592 -0.054762 1.94358
0.177182 -0.0906613 0.98493
-0.693762 -0.164386 4.44953
0.0657914 0.00681012 0.639497
0.137084 -0.115559 1.25541
-0.524519 0.0178729 1.67863
-0.790605 -0.186447 4.72624
0.097934 -0.229811 2.46312
0.137299 -0.11889 1.25739
0.174156 -0.276911 1.2599
0.0686332 -0.270039 1.25
0.137385 -0.12054 1.25817
-0.56183 0.0163636 1.74174
0.180919 -0.264875 1.2627
0.0916574 -0.254469 1.22037
-1.03374 -0.549493 6.90978
-0.494834 -0.0435299 2.39723
0.138501 -0.244357 1.18613
0.095053 -0.249179 1.22442
0.177558 -0.11653 1.44261
-0.948403 -0.51207 6.33937
0.0844794 -0.240875 1.20588
0.132531 -0.248183 1.24246
0.109841 -0.255889 1.28913
0.0796585 -0.2371 1.20205
0.170479 -0.0907061 0.934557
0.135983 -0.122283 1.2599
0.106197 -0.233352 1.24636
-0.487081 0.0108728 1.57794
0.142819 -0.226231 1.25013
0.067005 0.00285727 0.651293
-0.527092 -0.0288515 1.84326
-0.73234 -0.289309 10.2666
0.0331678 -0.210504 1.22245
0.144526 -0.225313 1.30845
0.140205 -0.0551714 1.24095
-0.464769 0.00357654 1.9025
0.0626233 -0.034518 1.22501
-0.63567 0.00376467 2.002
-0.631479 0.00372512 1.98093
0.077034 -0.190688 1.2329
-0.70408 -0.193859 4.24099
0.121579 -0.185984 1.24274
0.199788 -0.2368 2.80122
0.0766037 -0.00816429 1.00307
0.159682 -0.110272 0.893926
-0.659418 -0.0510278 2.46958
0.16294 -0.116312 0.952558
0.154781 -0.105803 0.866489
0.0744539 -0.313568 2.62181
0.16443 -0.113296 0.947289
0.0294974 -0.285091 2.46103
0.0860805 -0.287288 2.47999
-0.6649 -0.0306297 3.26104
0.0793579 -0.265935 2.37261
-0.631167 -0.287571 2.62434
0.123247 -0.211204 1.97246
-0.488781 0.420787 2.32527
0.125877 -0.109558 1.22351
-0.357386 0.0826825 1.80879
0.124446 -0.109658 1.22463
0.065807 -0.0322699 1.1985
-0.570053 -0.170231 1.90117
-0.740258 -0.318101 4.74774
0.156506 -0.135181 1.23361
0.140643 -0.0796178 1.2589
0.128933 -0.0627932 1.23802
0.180851 -0.0974342 1.07311
0.0601703 0.0216499 1.04767
0.0344584 -0.0895737 2.6008
-0.667853 -0.298249 4.21509
-0.648653 -0.26633 3.764
-0.0311116 0.0213592 1.26329
0.0335355 -0.259658 3.54417
0.093914 -0.0221829 1.0122
0.0501637 0.0151489 1.15198
-0.178132 -0.0676255 3.48356
0.0629259 -0.105261 2.84906
0.180795 -0.0958744 1.04156
0.0481241 0.0144012 1.21041
-0.533668 0.0191107 1.79494
-0.565699 0.0196729 1.84775
0.181553 -0.0955027 1.0236
-0.925174 -0.223238 5.65883
-0.925379 -0.221576 5.61671
-0.631566 -0.289522 2.61228
-0.757605 -0.138037 4.89867
-0.176993 -0.0888661 3.46127
0.176994 -0.0950303 1.00505
0.1397 -0.240866 2.14894
0.0641442 -0.0263553 1.0266
-0.379244 0.0182633 1.94426
-0.566876 -0.182598 1.93123
-0.542113 0.0169854 1.80799
0.089254 -0.0216719 0.988891
0.0816731 -0.0210064 0.958531
-0.866038 -0.376472 15.4146
-0.238894 -0.108729 4.45204
-0.573101 -0.184665 1.92757
-0.270864 -0.0457779 3.17836
-0.222474 -0.0387466 2.69022
0.12747 -0.108066 1.22398
0.0402524 -0.25352 1.30184
0.10404 -0.241362 1.2394
0.128637 -0.240362 1.25035
-0.526829 -0.0148623 1.82622
0.108844 -0.232053 1.22306
0.148342 -0.238458 1.25681
0.0836362 -0.237874 1.26207
0.128802 -0.235968 1.25196
0.100599 -0.238736 1.27512
0.0854522 -0.229452 1.24215
0.0797662 -0.0208244 0.95023
0.0906028 -0.227461 1.24829
0.0744765 -0.22479 1.24217
0.141519 -0.226677 1.2526
0.0797599 -0.220499 1.22695
0.0872434 -0.223802 1.24533
0.142851 -0.224715 1.25041
0.0886769 -0.220338 1.24339
-0.533874 0.00777541 1.77305
-0.976681 -0.250629 5.97388
0.0865622 -0.278758 2.40635
-0.727194 -0.457207 16.2245
0.104388 -0.209431 1.22513
-0.576316 -0.192983 1.93838
0.0891734 -0.0134742 0.935649
-0.567594 0.00578442 1.84633
-0.607538 0.00609124 1.94433
-0.547019 -0.364978 2.21627
0.210518 -0.192608 1.17852
-0.586303 0.00358646 1.90719
-0.609539 0.00368313 1.95864
-0.499989 -0.00110108 1.76406
0.174328 -0.117958 1.41636
0.0793737 -0.00177505 0.945553
0.121796 -0.184757 1.24496
-0.641666 -0.340722 2.3155
-0.530474 -0.0073682 2.35394
-0.52689 -0.333632 2.28678
-0.527753 -0.329505 2.27804
-0.537399 -0.335198 2.35824
-0.676946 -0.303476 2.19304
0.0595376 -0.0053687 0.952877
-0.486697 -0.242121 2.34347
-0.514953 -0.0100123 1.77727
0.0513961 -0.00789995 1.14703
0.0508549 -0.0138937 1.16785
-0.520182 -0.0123623 1.79532
-0.518147 -0.0122605 1.78054
0.207597 -0.170286 1.42379
0.0851082 -0.0110628 0.929951
-0.725074 -0.192056 6.01379
-0.224885 0.209193 1.58331
-0.784561 -0.14978 4.69011
0.206585 -0.153037 1.42922
0.0820496 -0.0438336 1.4286
-0.549353 -0.276506 2.58238
-0.554726 -0.172936 1.93137
-0.557751 -0.173118 1.93341
-0.382339 0.0467884 1.58971
0.155027 -0.135249 1.23423
-0.470964 -0.0169645 1.80649
-0.557264 -0.0632342 3.25755
-0.557391 -0.0637189 3.28252
0.0583356 0.0184985 0.95289
-0.557261 -0.170547 1.93171
-0.920604 -0.0732674 2.85402
-0.633264 -0.285529 2.6057
0.0645221 0.0161547 0.955428
0.0633701 0.0161685 0.956248
-0.813042 -0.231627 4.45674
-0.555524 -0.049652 1.93415
0.0496594 -0.230644 3.14814
0.0488125 0.0156902 1.08937
0.219828 -0.102576 1.37656
-0.545438 -0.175504 1.93302
0.155617 -0.137315 1.23893
-0.820533 -0.181219 4.90515
-0.807437 -0.310872 5.8407
0.182124 -0.0992647 1.14046
-0.536842 0.0217124 2.03944
0.0701751 -0.0111149 0.934339
-0.551951 -0.240248 2.61009
-0.547449 -0.292858 2.35026
-0.685412 -0.107354 3.80985
-0.673103 -0.280905 2.25435
-0.519483 -0.285329 2.26706
-0.537521 -0.290436 2.30763
-0.513601 0.0173322 1.84496
0.0736852 -0.0184236 0.949164
-0.723413 -0.22099 3.96543
0.0794487 -0.0186515 0.960899
-0.55496 -0.296644 2.35696
-0.504603 -0.0122592 1.78034
0.171604 -0.144665 1.2764
-0.525495 -0.0341202 1.87916
-0.483878 -0.0121902 1.77029
0.0875395 -0.299906 2.6172
-0.545646 -0.184433 1.92514
-0.559713 -0.0423328 1.93176
-0.515671 0.0151509 1.86083
-0.498006 -0.00989846 1.75706
-0.509756 -0.0147685 1.81469
-0.517749 0.0148734 1.82672
-0.480679 0.0122292 1.77499
-0.489322 0.0123913 1.79852
-0.553223 -0.165231 1.92614
0.0518492 -0.225576 1.26401
-0.44195 0.0103044 1.82798
-0.450141 -0.217035 2.20771
-0.511378 0.0103557 1.83697
