# .PCD v.6 - Point Cloud Data file format
FIELDS x y z
SIZE 4 4 4
TYPE F F F
COUNT 1 1 1
WIDTH 1744
HEIGHT 1
#VIEWPOINT 0 0 0 1 0 0 0
POINTS 1744
DATA ascii
-0.155849 -0.409277 9.61351
-0.256328 -0.210075 8.85209
1.21884 0.468226 28.6584
-0.232509 -0.399211 9.58998
-0.244675 -0.391117 9.53795
-1.37493 -1.0216 14.9354
-1.25248 -0.990435 14.6689
-0.397599 -0.463454 10.2154
-0.35389 -0.449341 10.0937
-0.869991 -0.426115 9.92771
-1.57042 -0.928442 14.2818
-2.85448 -2.32664 26.3826
-0.401909 -0.458651 10.1955
-0.884072 -0.429854 9.97917
-0.732243 -0.466492 10.2945
-0.258899 -0.437053 10.0645
-0.192962 -0.384354 9.60795
-0.172557 -0.347308 9.27323
-0.102404 -0.383723 9.59966
-0.118993 -0.318611 9.03086
-0.0982985 -0.3663 9.48479
-0.121349 -0.317872 9.03334
-0.44893 -0.45351 10.3338
-1.29508 -1.04082 15.9989
-0.31892 -0.454915 10.3685
-0.19267 -0.381494 9.66283
-0.3778 -0.437467 10.2273
-1.2812 -1.00213 15.81
-0.556704 -0.540245 11.2639
-1.32318 -0.855666 14.4529
-1.01799 -0.677192 12.6737
-0.207678 -0.398903 9.88914
-0.138701 -0.314421 9.04926
-0.19786 -0.369131 9.6107
-0.904398 -0.518378 11.1681
-0.832501 -0.524117 11.2242
-0.866262 -0.438949 10.3866
-0.26706 -0.379396 9.77399
-1.19398 -0.796563 14.3158
-0.0935674 -0.329418 9.27408
-0.819239 -0.420998 10.3354
-1.75055 -1.56806 22.9972
-0.174493 -0.328452 9.29483
-0.551648 -0.491787 11.1461
-0.462464 -0.428083 10.4318
-0.425128 -0.483819 11.0928
-0.191483 -0.353132 9.60495
-1.28861 -0.900484 15.9499
-0.314292 -0.39048 10.0579
-0.312637 -0.386042 10.0069
-1.02667 -0.677847 13.4586
-0.142462 -0.430505 10.545
-0.0971537 -0.337375 9.45801
-1.01241 -0.666418 13.4002
-0.433153 -0.40929 10.3386
-0.896028 -0.521949 11.7393
-0.311042 -0.389777 10.1316
-1.46714 -1.39716 22.4812
-0.3151 -0.375376 9.98514
-0.989816 -0.473895 11.2565
-0.358026 -0.478245 11.2871
-1.14092 -0.79412 15.3357
-0.0966195 -0.329926 9.46069
-0.143091 -0.394857 10.3453
-1.09887 -0.782546 15.5333
-0.083839 -0.305275 9.19571
-0.169798 -0.33106 9.58389
-0.109878 -0.457492 11.3605
-1.05709 -0.437704 11.1749
-0.242497 -0.375938 10.2688
-0.158886 -0.402334 10.6384
-0.155257 -0.405754 10.7308
-0.154996 -0.403014 10.6914
-1.05133 -0.430836 11.1818
-11.3475 -11.688 182.949
-0.995803 -0.75817 16.4258
-0.970124 -0.7541 16.3615
-0.245641 -0.3583 10.3141
-0.978201 -0.402565 11.1366
-0.945148 -0.401576 11.1184
-0.917119 -0.358042 10.4795
-0.258957 -0.339082 10.1145
-1.09855 -0.388313 11.0821
-1.04249 -0.474264 12.6217
-0.950701 -0.583648 14.5799
-1.11004 -0.384875 11.0849
-0.245939 -0.263572 8.81411
-1.04639 -0.389876 11.3907
-0.852244 -0.377027 11.1269
-0.242027 -0.342199 10.4621
-1.14719 -0.339409 10.5739
-0.997244 -0.381144 11.5421
-0.499124 -0.658778 17.5871
-0.21923 -0.348272 10.7767
-0.256423 -0.215967 8.83373
-1.1687 -0.34828 10.9062
-1.33216 -0.628871 17.2284
-0.249538 -0.257783 8.81441
-0.314831 -0.210385 9.16578
-0.923786 -0.312297 10.2518
-1.2571 -0.661048 18.844
-0.781687 -0.655564 18.678
-1.25169 -0.670965 19.4318
-0.510703 -0.211739 9.1372
-0.361931 -0.369994 11.8555
-0.242721 -0.219921 8.82485
-0.395068 -0.335738 11.0532
-0.74985 -0.486395 15.4005
-0.334461 -0.369256 12.0869
-0.247241 -0.21971 8.8346
-0.852058 -0.347276 11.6281
-0.970484 -0.411089 13.4906
-1.04235 -0.454783 14.7652
-0.242644 -0.296498 10.1067
-0.980109 -0.359853 12.1452
-0.780043 -0.33011 11.4774
-1.0434 -0.327216 11.6868
-1.17623 -0.311801 11.287
-0.225519 -0.247263 8.82553
-0.949202 -0.314705 11.6947
-0.38749 -0.312883 11.741
-0.252752 -0.245528 8.81737
-0.418501 -0.216424 9.07667
-0.227875 -0.244764 8.81285
-0.413063 -0.295975 11.3504
-1.04157 -0.282849 11.1438
-0.519934 -0.281719 11.0093
-0.474837 -0.278435 10.8221
-0.22551 -0.262911 9.93203
-0.249367 -0.241061 8.81047
-0.791209 -0.251108 9.65237
-0.944014 -0.272274 11.1498
-0.845587 -0.256341 10.1956
-0.894059 -0.269622 11.2159
-0.792531 -0.268915 11.1429
-0.313378 -0.256527 10.1094
-0.312302 -0.252985 10.0086
-0.794387 -0.245115 9.58851
-0.413952 -0.25396 10.3326
-0.2701 -0.250156 9.9415
-0.262265 -0.249984 9.92346
-0.199549 -0.24944 9.85783
-0.790989 -0.24353 9.59867
-0.429364 -0.249695 10.1616
-0.31987 -0.250178 10.1845
-0.313649 -0.247552 9.90287
-0.257236 -0.237887 8.85767
-0.843079 -0.247363 10.2954
-0.938862 -0.253322 11.0575
-0.212819 -0.243539 9.63552
-0.210646 -0.243581 9.64009
-0.25962 -0.23614 8.96323
-0.247146 -0.222033 8.83016
-0.229096 -0.223194 8.80611
-0.290041 -0.239003 9.84364
-0.814299 -0.224591 9.63701
-0.373261 -0.227161 9.28816
-0.242926 -0.22959 8.80531
-0.241347 -0.22959 8.80616
-0.790194 -0.223009 9.61727
-0.333598 -0.226488 9.1907
-0.564618 -0.22357 9.36244
-0.260166 -0.225064 9.09334
-0.35884 -0.213712 10.1618
-0.258089 -0.224249 8.96885
-0.232828 -0.225288 8.80945
-0.290921 -0.216752 9.39333
-0.218124 -0.223922 8.8069
-0.58692 -0.223529 9.36082
-0.138573 -0.458924 6.58143
-0.13752 -0.45754 6.57669
-0.117662 -0.444529 6.56955
-0.0581915 -0.321504 6.15339
-0.0501722 -0.320305 6.15216
-0.0453136 -0.25501 6.15716
0.023498 -0.179899 6.21942
0.0233273 -0.179111 6.22175
0.0239833 -0.176612 6.22671
0.0313316 -0.153926 6.24145
-0.0684441 -0.141553 6.11865
-0.118678 -0.448183 6.661
-0.11452 -0.447315 6.65776
-0.166529 -0.413927 6.57626
-0.814001 -0.474668 7.21207
-0.0549565 -0.247841 6.14853
-0.0443886 -0.244307 6.15787
-0.193494 -0.400256 7.43779
-0.0448914 -0.227886 6.15311
-0.0437977 -0.218134 6.15447
0.00656817 -0.272874 6.65891
-0.0439168 -0.209024 6.1543
-0.96818 -0.310661 8.80562
-0.0478128 -0.173026 6.14335
-0.808338 -0.272495 8.25937
-0.0480215 -0.16085 6.14293
-0.144297 -0.421296 6.62884
-0.158377 -0.426331 6.6671
-0.822128 -0.53246 7.30012
-0.15339 -0.363319 6.68544
-0.868787 -0.212578 7.41688
-0.0646907 -0.181871 6.4888
0.0102238 -0.182154 6.44449
0.00273977 -0.262641 6.6311
-0.829376 -0.453025 8.42635
-0.00581077 -0.198112 6.74814
-0.9377 -0.403971 8.10985
-0.870757 -0.407891 8.18712
-0.0674252 -0.215457 6.62332
-0.0735672 -0.317236 8.36708
-0.0653727 -0.200717 6.49184
-0.294615 -0.123256 7.22149
-0.0168079 -0.176045 7.12022
-0.994998 -0.306216 7.78534
-0.171 -0.384332 6.60924
-0.157706 -0.387053 6.62207
-0.779757 -0.229954 8.47481
-0.805489 -0.279571 7.34806
-0.804279 -0.490222 7.32969
-0.998636 -0.312132 7.7875
-0.0638369 -0.177098 6.49482
-0.140344 -0.368326 6.85088
0.0120708 -0.18627 6.57496
-1.03693 -0.472415 7.86383
-0.822723 -0.394771 7.32253
-0.360155 -0.397574 7.56921
-1.00597 -0.424009 7.80865
-0.995737 -0.415651 7.78733
-1.10603 -0.697668 10.1877
0.00702052 -0.272266 6.65352
-0.967625 -0.423198 8.04378
-0.999451 -0.333133 7.7983
-0.785433 -0.236361 7.32151
-0.178471 -0.365234 6.59779
-0.87111 -0.400724 9.02482
-0.129942 -0.379043 6.67477
-0.117122 -0.357208 6.56605
-0.792504 -0.238914 8.52164
-0.781678 -0.472979 7.32419
-0.0688518 -0.308137 8.05908
-0.380082 -0.344301 7.40776
-1.39072 -0.81975 14.06
-0.39114 -0.410215 7.50619
-0.780589 -0.375989 7.32073
-0.208263 -0.37428 7.53075
-0.273253 -0.365243 7.47036
-0.968705 -0.430006 8.04742
-0.764573 -0.221296 9.14257
-0.129394 -0.299995 8.75063
-0.911212 -0.300214 8.52318
-0.041081 -0.409312 7.77062
-0.155327 -0.363093 6.67615
-0.124568 -0.367194 7.77417
-1.13529 -0.349943 11.1621
-0.0657656 -0.229386 6.60267
-0.278537 -0.421975 7.48557
-0.288767 -0.144776 7.14525
-0.750112 -0.203738 8.47697
-0.982236 -0.323793 8.03885
-0.211835 -0.351978 10.0574
-1.00748 -0.4669 8.16665
-0.877323 -0.313787 7.77848
-0.941386 -0.347197 8.18409
-0.109225 -0.183892 7.75278
-0.996179 -0.367719 11.089
-0.388186 -0.442539 7.50274
-0.38131 -0.443808 7.51149
-0.306151 -0.336454 7.58674
-0.0516425 -0.386882 7.82879
-0.433448 -0.153572 7.58598
-1.01118 -0.679283 9.47978
-0.182336 -0.370847 7.54694
-0.0353971 -0.341832 7.60123
-0.849197 -0.330579 7.74043
-0.904103 -0.471194 8.29449
-0.313495 -0.398749 7.47872
-0.343682 -0.347805 7.51546
-0.358006 -0.447725 7.43991
-1.18372 -0.59751 18.0893
-1.45386 -1.21902 33.495
-0.763213 -0.216546 9.13354
-0.789477 -0.196935 8.50551
-0.702552 0.00305019 7.8507
-0.800534 -0.356563 7.74959
-0.0454759 -0.331428 7.79577
-0.79725 -0.362046 7.74793
-0.197484 -0.469911 7.53731
-0.0964056 -0.434932 7.54729
-1.55641 -0.156223 16.0192
-0.273761 -0.456425 7.49806
-0.945369 -0.499422 8.18653
-0.421194 -0.36972 7.55016
-0.954997 -0.60996 8.26044
-0.895353 -0.291421 8.21691
-0.92549 -0.471264 8.15054
-0.456014 -0.38148 7.49565
-0.437266 -0.382805 7.48646
-0.305342 -0.355183 7.51495
-0.228243 -0.501743 7.52769
-0.0304234 -0.478909 7.41707
-0.233275 -0.464799 7.50434
-0.375586 -0.345801 7.46961
-0.392082 -0.480264 7.54805
-0.30428 -0.448694 7.44769
-0.212947 -0.464275 7.50165
-0.423751 -0.461748 7.52773
-0.898185 -0.293979 8.20102
-0.318332 -0.449071 7.43409
-0.810149 -0.265327 9.72478
-0.449164 -0.423533 7.54639
-0.938502 -0.638669 8.3466
-0.941836 -0.633729 8.35964
-0.208587 -0.30502 7.52711
-0.030884 -0.346532 7.6229
-0.948079 -0.618187 8.44243
-0.941704 -0.560539 8.40208
-0.053573 -0.254389 8.15845
-0.420024 -0.437018 7.51587
-0.904398 -0.286521 8.32385
-0.949516 -0.311321 9.41642
-0.399981 -0.338116 7.54429
-1.83214 -1.07743 14.3453
-0.985852 -0.62734 8.81118
-0.111423 -0.310351 7.81942
-0.968161 -0.354555 10.4444
-2.00863 -2.44466 41.0212
-0.950332 -0.677681 8.84044
-0.942409 -0.332182 8.8216
-0.721808 -0.446494 10.2484
-0.894207 -0.681607 15.3122
-0.944476 -0.644605 8.93162
-0.341979 -0.19518 8.52385
-0.747114 -0.501224 10.4271
-0.949993 -0.311919 9.31654
-1.45899 -0.934431 14.6408
-1.33271 -1.23001 21.6243
-0.365888 -0.501134 10.2043
-1.08392 -0.755361 10.1339
-1.67214 -1.11896 14.7489
-0.417279 -0.520195 10.2938
-1.28266 -0.984489 15.8377
-0.339457 -0.445424 11.4363
-1.3668 -1.1468 15.0282
-1.7675 -1.48779 22.8422
-1.50772 -1.13267 15.0011
-1.36231 -1.02342 14.9884
-0.0897237 -0.351313 9.08685
-0.143037 -0.378675 9.03097
-0.231496 -0.216643 8.82004
-0.195742 -0.464558 9.23269
-0.567487 -0.659795 15.5753
-0.187965 -0.459854 9.23469
-0.114654 -0.431624 9.12784
-0.130241 -0.456015 9.22758
-0.240186 -0.192419 9.26167
-0.0928925 -0.454573 9.29004
-0.0980524 -0.453896 9.29193
-0.250302 -0.208859 8.96902
-0.822508 -0.255403 10.8479
-0.162574 -0.548798 9.83381
-0.161085 -0.547743 9.90765
-0.237316 -0.584734 10.175
-0.171459 -0.529268 9.90053
-0.0918307 -0.393065 9.22578
-0.0926102 -0.384478 9.23028
-0.100753 -0.407372 9.37376
-0.100317 -0.406453 9.37554
-0.165041 -0.462372 9.7586
-0.173115 -0.384098 9.28568
-0.0953123 -0.374722 9.22834
-0.167576 -0.40125 9.5668
-0.297613 -0.529426 10.1922
-0.0957754 -0.39545 9.39928
-0.0942939 -0.395587 9.40013
-0.298734 -0.502085 10.1455
-0.376058 -0.515109 10.2629
-0.175536 -0.370159 9.29713
-0.172711 -0.366807 9.28196
-0.380686 -0.507514 10.259
-0.331722 -0.493253 10.1758
-0.861788 -0.455735 9.94707
-1.55512 -1.13472 14.8602
-1.80997 -1.12801 14.8724
-1.30459 -1.15982 15.0987
-0.127198 -0.405676 9.61984
-0.12322 -0.406365 9.6248
-1.42325 -1.15171 15.1018
-1.37936 -1.15029 15.0911
-0.232424 -0.40175 9.60326
-0.221131 -0.401088 9.60946
-0.175864 -0.393132 9.5503
-0.411799 -0.488449 10.2737
-1.53216 -1.11954 15.0501
-0.152608 -0.330994 9.10429
-0.227677 -0.39382 9.58897
-0.771264 -0.490805 10.349
-0.441351 -0.473753 10.251
-0.363381 -0.461806 10.1921
-0.181679 -0.34453 9.26374
-1.43734 -0.996393 14.6529
-1.3724 -1.03782 14.993
-0.117464 -0.39598 9.70417
-0.197957 -0.381505 9.61088
-0.192671 -0.382175 9.61646
-1.50068 -0.821887 13.3719
-0.146108 -0.321606 9.11508
-0.191766 -0.379986 9.62394
-0.114193 -0.392812 9.73328
-1.43273 -0.975483 14.811
-1.28154 -0.924114 14.3643
-0.448903 -0.451588 10.2603
-1.36849 -0.877076 14.0182
-0.451731 -0.441466 10.192
-0.7254 -0.450295 10.2926
-0.255975 -0.213914 8.95084
-0.317384 -0.455625 10.4504
-0.133978 -0.327141 9.24312
-0.566046 -0.535007 11.2307
-0.18009 -0.380783 9.76298
-0.170071 -0.329759 9.27838
-0.153428 -0.325956 9.25233
-1.16199 -0.721255 13.1165
-1.65192 -0.806773 14.0209
-0.439426 -0.421395 10.2157
-1.16507 -0.883227 14.9308
-0.120189 -0.322377 9.25929
-0.986676 -0.615744 12.2776
-0.519493 -0.508191 11.1739
-1.42101 -1.36769 20.1209
-0.253078 -0.408559 10.1756
-1.25945 -0.839532 14.7305
-0.780494 -0.403382 10.1963
-0.386753 -0.208137 9.74867
-0.135578 -0.383085 9.97216
-0.419117 -0.491396 11.2182
-0.161138 -0.328488 9.42564
-0.439532 -0.491035 11.2948
-0.391742 -0.489861 11.281
-0.306049 -0.397421 10.227
-0.784732 -0.384514 10.1333
-0.295063 -0.396648 10.2996
-0.135036 -0.369606 9.9764
-0.992032 -0.468807 11.2061
-1.06269 -0.799921 15.2081
-0.355127 -0.472117 11.2409
-0.169077 -0.330946 9.58758
-1.37323 -0.920173 17.1963
-0.2458 -0.375911 10.1858
-0.157209 -0.410598 10.6313
-0.167959 -0.353641 9.89873
-0.981433 -0.448913 11.1756
-1.45971 -0.95354 17.9333
-1.11829 -0.794838 15.821
-0.167688 -0.332217 9.66403
-0.278485 -0.377028 10.2922
-0.163376 -0.396384 10.59
-0.191405 -0.324515 9.60204
-1.02215 -0.425927 11.0487
-0.15939 -0.405055 10.7498
-1.65406 -1.51752 26.6465
-0.176863 -0.332999 9.79069
-0.596532 -0.921724 18.5143
-0.877953 -0.459473 11.7518
-0.290977 -0.612115 14.044
-0.248221 -0.356919 10.2746
-0.248383 -0.353708 10.2244
-0.983397 -0.482317 12.3178
-0.992106 -0.408204 11.1916
-0.949679 -0.690279 15.9353
-1.10616 -0.390361 11.2502
-0.792651 -0.858922 19.9361
-0.245736 -0.387122 11.1837
-1.12163 -0.374559 11.0817
-0.227987 -0.35454 10.6858
-0.142853 -0.342822 10.4573
-1.13535 -0.491479 13.4791
-1.17629 -0.593805 15.5189
-1.0855 -0.430762 12.4717
-0.266607 -0.314504 10.0267
-1.04692 -0.386057 11.618
-1.07077 -0.36004 11.1312
-1.21317 -0.572344 15.8333
-0.127411 -0.309437 10.004
-1.04956 -0.365925 11.3429
-1.04257 -0.390365 11.8995
-1.00289 -0.411295 12.3759
-0.926866 -0.313437 10.2522
-1.1205 -0.606312 17.902
-1.06279 -0.499346 15.3762
-0.367638 -0.298551 10.0377
-1.00049 -0.419687 13.4269
-0.689675 -0.434944 14.0382
-0.510401 -0.472628 15.1094
-0.340778 -0.341519 11.3772
-0.312823 -0.3145 10.6081
-0.264434 -0.291225 9.94549
-1.07362 -0.465544 15.152
-1.1898 -0.386545 13.1741
-0.912226 -0.360364 12.3381
-0.158409 -0.343324 10.519
-0.181861 -0.288663 10.2737
-0.747605 -0.304902 11.2527
-0.791289 -0.298448 11.1255
-0.250228 -0.246205 8.81266
-0.946313 -0.307521 11.7106
-0.259357 -0.247441 8.96125
-0.230157 -0.263365 9.90589
-0.739614 -0.284233 11.2993
-0.634635 -0.281088 11.1066
-0.923783 -0.2606 10.2877
-0.345083 -0.258554 10.1246
-0.84794 -0.255793 10.2794
-0.41832 -0.255598 10.2604
-0.218935 -0.251311 9.83566
-0.847115 -0.253493 10.2851
-0.289542 -0.250059 9.89782
-0.274639 -0.250005 9.89185
-0.847513 -0.251213 10.2955
-0.340728 -0.250918 10.2588
-0.315043 -0.247809 9.84904
-0.797884 -0.249585 10.4133
-0.426587 -0.245666 10.142
-0.454512 -0.24332 10.0989
-0.227148 -0.242251 9.82392
-0.306142 -0.240712 9.91817
-0.286932 -0.240575 9.86559
-0.206509 -0.236865 9.55124
-0.388765 -0.233906 9.58751
-0.205841 -0.234283 9.42296
-0.265136 -0.230401 9.42831
-0.209811 -0.230612 9.39277
-0.811847 -0.223491 9.74414
-0.255379 -0.22679 8.96887
-0.247525 -0.222502 8.96823
-0.423979 -0.2144 9.11527
-0.142293 -0.350808 9.03165
-0.14247 -0.336796 9.03117
-0.513733 -0.391116 12.7317
-0.257378 -0.227172 8.96398
-0.727482 -0.558053 9.57221
-0.084801 -0.470036 9.32362
-0.0855488 -0.469259 9.3247
-0.147439 -0.370384 9.03503
-0.0897159 -0.40232 9.21002
-0.0774667 -0.403441 9.24542
-0.0931744 -0.390528 9.22472
-0.094881 -0.37895 9.22816
-0.147308 -0.341026 9.03541
-0.0955907 -0.372038 9.23181
-0.253941 -0.205817 8.85581
-0.094975 -0.369517 9.23368
-0.0899147 -0.369699 9.24025
-0.149486 -0.33085 9.03323
-0.146573 -0.321008 9.03751
-0.258097 -0.21037 8.84609
-0.25824 -0.213199 8.8158
-0.257185 -0.237989 8.85634
-0.25699 -0.216526 8.8509
-0.247266 -0.221389 8.82941
-1.99674 -0.77314 19.6091
-0.369806 -0.383804 12.1346
-1.13309 -0.473173 16.1354
-1.75535 -1.9464 24.2584
-0.792898 -0.248036 10.5827
-0.250003 -0.207404 8.9983
-0.0930384 -0.446707 9.28654
-0.253128 -0.213901 8.95069
-0.077022 -0.829606 10.8691
-0.17381 -0.559062 9.85712
-0.0995543 -0.431492 9.31352
-0.0646321 -0.576384 9.95423
-0.207384 -0.578971 10.0103
-0.195333 -0.567915 9.99454
-0.178254 -0.392082 9.18125
-0.114523 -0.573953 10.0484
-0.260298 -0.217913 8.9407
-0.0923619 -0.407488 9.28872
-0.189228 -0.555411 10.017
-0.236983 -0.581405 10.155
-0.170449 -0.383685 9.18765
-0.168966 -0.525385 9.89626
-0.552621 -0.199405 9.37566
-0.0961146 -0.411938 9.33653
-0.445984 -0.206665 9.28301
-0.0999589 -0.410711 9.35813
-0.257303 -0.592133 10.3095
-0.281329 -0.572482 10.2192
-0.101495 -0.408652 9.3648
-0.0851714 -0.413296 9.40741
-0.103943 -0.404823 9.36825
-0.317528 -0.212473 9.18771
-0.176848 -0.370914 9.19107
-0.170446 -0.382671 9.29404
-0.412314 -0.165997 10.5379
-0.260112 -0.223442 8.94843
-0.169369 -0.381684 9.29423
-0.17541 -0.363917 9.19722
-0.0969389 -0.396998 9.39432
-0.370458 -0.219234 9.26752
-0.29925 -0.532771 10.2044
-0.579765 -0.222736 9.3844
-0.0498204 -0.558823 10.4249
-0.306189 -0.529337 10.2914
-0.29451 -0.513083 10.2167
-0.103832 -0.408983 9.55117
-0.206996 -0.230744 9.4362
-0.376502 -0.514576 10.2562
-0.812033 -0.455217 9.92843
-0.100481 -0.379567 9.41659
-0.0974524 -0.378597 9.41
-0.248928 -0.230142 9.49366
-0.378774 -0.499361 10.2589
-0.103998 -0.398539 9.56274
-0.366984 -0.491483 10.2197
-1.80009 -1.13102 14.8321
-1.58219 -1.12444 14.7807
-0.413252 -0.485203 10.2226
-0.218657 -0.398983 9.60698
-0.17978 -0.337604 9.17087
-0.226393 -0.39674 9.60123
-0.836264 -0.473945 10.1819
-1.40044 -1.14389 15.0312
-1.37659 -1.14475 15.0369
-1.29788 -1.15669 15.1214
-1.52475 -1.12139 14.9891
-0.269391 -0.231831 9.61381
-0.758451 -0.477923 10.2909
-0.443456 -0.473592 10.2512
-0.136628 -0.383019 9.60212
-0.169201 -0.340593 9.28529
-1.55101 -1.06939 15.2285
-0.197583 -0.3788 9.6152
-1.38326 -0.751431 12.8254
-0.735572 -0.453268 10.3121
-1.36926 -0.987992 14.8901
-1.25463 -0.95983 14.7137
-0.378511 -0.430642 10.1462
-1.42545 -0.915122 14.528
-0.562345 -0.538528 11.2423
-0.299247 -0.399876 9.97418
-0.173474 -0.43682 10.3376
-0.175761 -0.325677 9.28816
-0.447943 -0.442203 10.4182
-0.358964 -0.510588 11.0695
-0.127972 -0.322014 9.27119
-0.8644 -0.537966 11.4141
-1.28213 -0.981426 15.8568
-0.253452 -0.409338 10.1597
-0.310069 -0.410983 10.1989
-0.195518 -0.352155 9.61983
-0.163216 -0.335572 9.45042
-0.161846 -0.331921 9.42537
-0.300223 -0.386047 10.006
-0.43549 -0.525785 11.5473
-0.128229 -0.382034 10.0201
-1.08632 -0.703788 13.609
-0.437216 -0.409488 10.3521
-0.436509 -0.489783 11.2358
-0.288471 -0.393317 10.1937
-1.16468 -0.534686 11.8427
-0.22555 -0.397207 10.2602
-0.102646 -0.325148 9.44123
-0.363468 -0.477012 11.2459
-0.352939 -0.475957 11.2333
-0.159588 -0.353977 9.80686
-0.107057 -0.338759 9.62808
-0.170835 -0.330599 9.58331
-0.183179 -0.296816 9.18291
-0.1636 -0.333202 9.68882
-0.119027 -0.326745 9.64156
-0.184191 -0.385314 10.5327
-0.885713 -0.458863 11.7687
-1.01573 -0.419545 11.2917
-0.953132 -0.41193 11.1715
-0.973932 -0.405284 11.1737
-0.106537 -0.320431 9.77468
-1.12058 -0.38388 11.0977
-0.12723 -0.325539 10.0129
-1.05606 -0.394347 11.4144
-0.488196 -0.233782 9.45776
-0.379239 -0.282464 9.30616
-0.349909 -0.315031 9.93106
-1.15494 -0.495541 13.5566
-0.181181 -0.332413 10.3023
-0.140917 -0.35081 10.663
-1.03398 -0.386891 11.5631
-0.142019 -0.342025 10.651
-1.56391 -1.31591 25.1984
-1.32094 -0.60384 16.4867
-0.192086 -0.326622 10.4296
-1.04372 -0.365472 11.4249
-0.36212 -0.396385 12.4528
-0.674561 -0.48912 15.2465
-0.636241 -0.39919 12.9645
-0.92501 -0.228447 10.2874
-0.315525 -0.298251 10.1216
-1.17567 -0.449033 14.6039
-1.25943 -0.403397 13.4658
-1.03486 -0.347623 12.1933
-0.175991 -0.278162 10.0469
-0.743834 -0.302474 11.225
-0.207015 -0.261149 9.45367
-0.472715 -0.289016 10.8826
-0.55985 -0.273888 10.5318
-0.383707 -0.295318 11.7782
-0.917536 -0.286231 11.523
-0.710779 -0.287636 11.5891
-0.172868 -0.257058 9.57879
-1.05198 -0.276625 11.1376
-0.24671 -0.207842 8.9811
-1.15067 -0.268989 11.0689
-0.346705 -0.259754 10.1772
-0.314663 -0.263325 10.4718
-0.866563 -0.269664 11.3889
-0.841374 -0.255242 10.2402
-0.418117 -0.25651 10.2974
-0.311098 -0.252569 9.85971
-0.285611 -0.252859 9.88584
-0.843683 -0.2533 10.2723
-0.64002 -0.258101 10.817
-0.536959 -0.254178 10.3156
-0.495275 -0.255753 10.4994
-0.429365 -0.25593 10.5074
-0.309626 -0.251364 9.92366
-0.381608 -0.252889 10.4231
-0.356464 -0.25236 10.3407
-0.278255 -0.249381 9.89107
-0.256331 -0.249084 9.84274
-0.203793 -0.248996 9.81716
-0.893591 -0.25123 10.7123
-0.316552 -0.245586 9.84757
-1.73482 -1.52264 22.6391
-0.379757 -0.400498 10.0537
-0.219335 -0.357509 10.755
-0.09396 -0.448048 9.28242
-0.097616 -0.423871 9.27176
-0.0970459 -0.408773 9.32679
-0.0930228 -0.332695 9.27213
-0.0755956 -0.327824 9.31985
-0.0976769 -0.313092 9.26951
-0.166684 -0.334246 9.66124
-1.04605 -0.384615 12.0381
-0.258948 -0.21397 8.96496
-0.518632 -0.277533 10.7932
-0.285733 -0.249732 9.88867
-0.259356 -0.23703 8.95256
-0.133895 -0.60622 9.94358
-0.215011 -0.596522 9.91363
-0.105005 -0.598052 9.96721
-0.215224 -0.582164 9.91145
-0.144387 -0.670203 10.2659
-0.259366 -0.237548 8.95251
-0.130061 -0.583026 9.95724
-0.173739 -0.563303 9.88264
-0.169299 -0.560428 9.87761
-0.155276 -0.56123 9.88084
-0.162259 -0.559211 9.87951
-0.181027 -0.392647 9.17909
-0.217521 -0.559243 9.92432
-0.126719 -0.572047 9.97931
-0.200688 -0.566003 9.96935
-0.135583 -0.574597 10.0066
-0.194556 -0.56602 9.99356
-0.152515 -0.537597 9.8884
-0.233659 -0.542592 9.91993
-0.17941 -0.531542 9.89206
-0.208215 -0.232409 9.44436
-0.239895 -0.57919 10.1436
-0.101917 -0.409393 9.35401
-0.0953722 -0.407927 9.36193
-0.125988 -0.466074 9.65787
-0.179776 -0.388346 9.27474
-0.127591 -0.525712 9.97382
-0.282458 -0.567673 10.1982
-0.102636 -0.405213 9.36926
-0.17392 -0.384731 9.27991
-0.214541 -0.446172 9.6062
-0.303876 -0.549752 10.1806
-0.172879 -0.366233 9.20115
-0.17173 -0.379213 9.28531
-0.0988308 -0.396793 9.38599
-0.299835 -0.538764 10.1767
-0.29803 -0.535079 10.1677
-0.0978966 -0.395914 9.39293
-0.222045 -0.431619 9.59982
-0.18031 -0.372964 9.27661
-0.343192 -0.542403 10.2444
-0.172353 -0.373121 9.28268
-0.362479 -0.534317 10.2349
-0.317761 -0.531634 10.2189
-0.373855 -0.530505 10.2761
-0.17569 -0.35031 9.19047
-0.0992957 -0.387119 9.41105
-0.404899 -0.523397 10.2863
-0.152226 -0.408921 9.60723
-0.34118 -0.497366 10.1884
-0.233644 -0.40169 9.60456
-0.83829 -0.454354 9.97375
-0.224797 -0.399599 9.5994
-0.171682 -0.35242 9.28164
-0.300013 -0.471943 10.0997
-0.418303 -0.488069 10.2392
-0.325371 -0.471078 10.121
-0.128822 -0.394319 9.58954
-0.170892 -0.349532 9.28101
-0.848624 -0.480242 10.2185
-1.54833 -1.12281 14.7364
-0.177451 -0.345814 9.28114
-1.31863 -1.14763 15.0808
-1.27128 -1.14975 15.0956
-0.341173 -0.470684 10.1899
-1.51917 -1.12271 14.9612
-0.737421 -0.483331 10.3172
-0.440052 -0.473879 10.2447
-0.114847 -0.405358 9.73827
-0.754036 -0.476494 10.2831
-0.445429 -0.474237 10.2633
-0.43417 -0.473249 10.2559
-0.404453 -0.465229 10.2116
-0.199813 -0.383155 9.60557
-0.362101 -0.459382 10.1986
-0.193419 -0.382746 9.6126
-0.395937 -0.452377 10.2094
-1.58923 -1.04057 14.9479
-1.43537 -1.00633 14.6722
-1.36496 -1.05504 15.0616
-2.04063 -1.07992 15.3357
-1.38814 -1.00166 14.759
-1.27733 -1.04833 15.1393
-0.880638 -0.43999 10.1812
-1.70683 -0.911398 14.0814
-0.722449 -0.449886 10.2792
-1.25601 -0.993591 14.8203
-0.170557 -0.32968 9.27857
-0.197216 -0.368171 9.61471
-1.47489 -0.922174 14.4747
-0.318456 -0.46383 10.4723
-0.273324 -0.401618 9.93019
-0.316452 -0.458146 10.4436
-0.175491 -0.326774 9.28572
-1.67551 -0.959004 14.9368
-1.47753 -0.904492 14.4496
-0.378148 -0.23581 9.98463
-0.294862 -0.398677 9.96715
-0.211043 -0.240043 9.62462
-1.71887 -1.90638 23.8829
-0.549834 -0.53017 11.1972
-1.42539 -0.86755 14.4494
-0.287955 -0.392506 9.95954
-0.127344 -0.485896 10.8383
-0.562856 -0.224112 9.35864
-0.246792 -0.412242 10.1644
-1.82971 -0.841479 14.3447
-0.925313 -0.508556 11.1849
-1.3023 -1.00035 16.0549
-0.98749 -0.514668 11.2799
-1.01553 -0.520015 11.3692
-1.24361 -0.782643 14.107
-0.455572 -0.415185 10.3224
-0.305936 -0.241252 9.9584
-0.569128 -0.499812 11.228
-0.925242 -0.569158 11.9987
-0.248748 -0.392892 10.1322
-0.433817 -0.40991 10.3375
-0.306037 -0.401338 10.2676
-1.77146 -1.54403 22.859
-0.196345 -0.339529 9.61134
-1.66803 -1.54889 23.1119
-1.03739 -0.687044 13.576
-0.406509 -0.467874 11.0937
-1.77053 -1.88507 27.3833
-0.27907 -0.389552 10.2316
-0.168434 -0.307272 9.28767
-1.2441 -0.540452 12.0206
-0.986802 -0.469394 11.1919
-0.358624 -0.469917 11.1914
-0.1444 -0.393387 10.3255
-1.23582 -0.705638 14.1027
-1.10123 -0.749661 14.7211
-0.289213 -0.382423 10.2482
-0.311696 -0.241259 9.94241
-0.960376 -0.455084 11.1787
-0.276516 -0.352251 9.90205
-0.251212 -0.365698 10.0918
-0.116409 -0.454366 11.2022
-0.980706 -0.448609 11.1805
-0.954284 -0.447553 11.1668
-1.532 -1.43279 23.7239
-0.14558 -0.401017 10.5654
-1.23454 -0.814669 15.9649
-0.474014 -0.47676 11.6325
-1.05258 -0.437417 11.1641
-1.05577 -0.439223 11.1883
-1.7651 -1.31993 22.9797
-0.260716 -0.355685 10.0621
-0.122057 -0.445056 11.2564
-0.804134 -0.462526 11.5478
-0.338142 -0.443982 11.3382
-0.839498 -0.361539 10.2314
-0.245144 -0.35503 10.1917
-0.969516 -0.489836 12.2358
-1.20525 -0.599541 13.8704
-1.44994 -0.881329 18.0652
-0.469706 -0.632625 14.3547
-0.261953 -0.336314 9.9443
-0.246819 -0.351105 10.1642
-0.159079 -0.383459 10.6446
-5.4771 -5.61125 89.9928
-0.121165 -0.334817 9.94679
-0.947106 -0.731791 16.1175
-1.61547 -1.38512 26.2207
-1.12573 -0.571507 13.7431
-0.106607 -0.310837 9.62439
-0.964917 -0.404183 11.1562
-0.84474 -1.13703 23.2319
-0.230109 -0.40676 11.301
-1.16601 -0.383682 11.0287
-0.869167 -0.408944 11.4672
-0.395256 -0.494581 12.9593
-0.968254 -0.387074 11.1428
-1.17192 -0.705699 16.8409
-0.258147 -0.390222 11.1913
-0.151712 -0.336124 10.223
-0.406141 -0.241295 9.8422
-1.16569 -0.697672 16.8841
-1.0894 -0.914143 20.8416
-1.04092 -0.548605 14.2884
-1.22422 -1.48468 31.809
-0.317586 -0.230286 9.10541
-1.00686 -0.422139 12.0873
-1.05916 -0.468593 13
-0.236599 -0.383165 11.3135
-0.933377 -0.329778 10.3164
-1.16153 -0.367238 11.0731
-0.144847 -0.341694 10.5996
-1.08006 -0.36163 11.1568
-1.06993 -0.36051 11.1323
-1.03823 -0.370383 11.3469
-1.05526 -0.385258 11.6711
-1.0485 -0.391374 11.8042
-1.0351 -0.393862 11.8583
-1.04977 -0.367673 11.365
-1.0507 -0.388609 11.8337
-0.145362 -0.336156 10.6491
-1.07961 -0.355533 11.167
-0.20024 -0.327846 10.5192
-0.488778 -0.457184 14.5409
-0.418062 -0.497451 14.9869
-0.111173 -0.29624 9.95353
-1.1131 -0.517482 15.9691
-1.22919 -0.613638 18.5591
-0.284905 -0.303151 10.1894
-0.938247 -0.305662 10.3246
-1.08444 -0.336038 11.1726
-0.254334 -0.211734 8.95897
-0.858607 -0.301492 10.2676
-1.07808 -0.378609 12.4964
-1.0674 -0.464553 14.9774
-0.108226 -0.288347 9.87924
-1.08067 -0.455634 14.9517
-0.369941 -0.351146 11.8136
-1.12883 -0.377504 12.7706
-0.311915 -0.309825 10.7405
-0.112488 -0.279599 9.75929
-1.01874 -0.386869 13.4425
-0.273322 -0.285605 10.0808
-1.04825 -0.318477 11.3735
-0.433355 -0.360458 12.9137
-0.963909 -0.321191 11.7703
-0.386375 -0.318172 11.8066
-0.413893 -0.302015 11.2613
-1.0583 -0.300099 11.5199
-0.269921 -0.273182 10.2454
-0.943238 -0.281526 10.8677
-0.520791 -0.282156 10.8986
-0.374343 -0.291244 11.4279
-1.07509 -0.285031 11.2742
-0.59759 -0.283535 11.1729
-0.890416 -0.280976 11.2277
-0.913687 -0.285066 11.5082
-0.228315 -0.261504 10.0102
-0.942311 -0.27413 11.218
-0.803352 -0.273859 11.1934
-0.947512 -0.270709 11.2113
-0.797434 -0.27038 11.1784
-0.371021 -0.261944 10.3932
-0.334071 -0.258916 10.3187
-0.844557 -0.254163 10.2871
-0.425839 -0.254407 10.313
-0.408885 -0.251983 10.2775
-0.296115 -0.249705 9.88432
-0.276037 -0.249674 9.87849
-0.265352 -0.249564 9.85947
-0.197267 -0.243092 10.0233
-0.092215 -0.633251 9.97445
-0.186211 -0.371104 9.1764
-0.0760089 -0.421178 9.40481
-0.102568 -0.407797 9.35826
-0.185172 -0.366046 9.17524
-0.177245 -0.364795 9.18523
-0.095537 -0.406209 9.37627
-0.184521 -0.356002 9.17976
-0.176167 -0.326655 9.18198
-0.176705 -0.323635 9.18026
-0.158774 -0.31397 9.22796
-0.159354 -0.308023 9.22854
-0.190791 -0.317132 9.63858
-0.254104 -0.222673 8.95649
-0.260789 -0.234877 8.94582
-0.436201 -0.358556 12.9021
-0.646947 -0.282072 11.2815
-0.260009 -0.394387 9.60685
-0.108959 -0.601571 9.95723
-0.215044 -0.574959 9.90689
-0.198559 -0.231882 9.43306
-0.164082 -0.553409 9.85882
-0.205206 -0.988625 11.6385
-0.127367 -0.575019 9.97828
-0.209781 -0.231886 9.43283
-0.179727 -0.549291 9.89309
-0.160645 -0.548578 9.9032
-0.22535 -0.546203 9.90057
-0.264518 -0.535271 9.86795
-0.2249 -0.542508 9.90522
-0.181613 -0.39382 9.27124
-0.388114 -0.234043 9.60316
-0.196907 -0.237798 9.59179
3.79497 4.54915 50.8162
-0.297226 -0.240325 9.90997
-0.246589 -0.55902 10.0526
-0.131676 -0.518092 9.86617
-0.282449 -0.241986 9.8836
-0.211004 -0.24379 9.63087
-0.128252 -0.533255 9.97293
-0.173775 -0.381831 9.27922
-0.315115 -0.576415 10.2129
-0.171341 -0.381445 9.28518
-0.238387 -0.519498 9.95644
-0.274628 -0.558182 10.1811
-0.120053 -0.249279 9.74036
-0.179632 -0.373784 9.27573
-0.287586 -0.546393 10.1512
-0.178125 -0.373301 9.28149
-0.172511 -0.363901 9.27483
-0.335109 -0.534511 10.2118
-0.357844 -0.541097 10.354
-0.401058 -0.52148 10.2763
-0.149103 -0.409987 9.61108
-0.107852 -0.400499 9.56828
-0.229873 -0.399199 9.59075
-0.247249 -0.393857 9.56499
-0.226463 -0.396808 9.59852
-0.798533 -0.448075 9.96281
-0.854443 -0.487737 10.2487
-0.797037 -0.484293 10.2252
-0.41672 -0.489191 10.2538
-0.170793 -0.249806 9.58166
-1.64425 -1.11233 14.7039
-0.329576 -0.253892 10.3469
-1.35495 -1.13943 15.0015
-1.49328 -1.12049 14.9243
-0.727813 -0.47352 10.2908
-0.362955 -0.461645 10.2011
-0.197524 -0.380405 9.61136
-0.810055 -0.465723 10.2499
-1.23221 -1.11335 14.9844
-0.380552 -0.254222 10.4103
-0.114929 -0.392306 9.75812
-1.94263 -1.03245 14.7949
-0.454342 -0.444229 10.2044
-1.43139 -0.996462 14.6258
-1.35753 -1.02106 14.8208
-0.410156 -0.459359 10.3572
-0.112085 -0.383547 9.74458
-1.58558 -1.00659 14.8315
-1.68113 -0.91689 14.1601
-0.272283 -0.400528 9.92184
-1.3008 -1.02546 15.1814
-1.42633 -0.953127 14.6398
-0.293189 -0.402823 9.96891
-1.47556 -0.91772 14.4641
-0.212317 -0.391863 9.90227
-0.843232 -0.253379 10.2728
-0.302925 -0.39917 9.98108
-0.202551 -0.3904 9.91743
-0.440032 -0.425682 10.2682
-0.236287 -0.431121 10.3152
-0.189356 -0.353826 9.61581
-1.42118 -0.883912 14.488
-0.323879 -0.424547 10.2944
-1.89928 -0.850925 14.4578
-1.30281 -0.989731 15.9575
-0.244999 -0.402097 10.2144
-1.24423 -0.782686 14.1262
-1.61301 -1.58488 22.3097
-0.278872 -0.377487 9.98411
-0.168822 -0.341789 9.61892
-0.171324 -0.337844 9.57872
-1.24116 -0.773997 14.1074
-0.550832 -0.493739 11.2053
-0.432904 -0.409399 10.3329
-0.174745 -0.307909 9.28187
-0.153721 -0.431963 10.5883
-0.42614 -0.256206 10.375
-0.520003 -0.256136 10.3678
-0.438025 -0.486531 11.2305
-1.5302 -1.52495 22.9799
-0.972152 -0.46726 11.1655
-0.96731 -0.471339 11.2118
-0.194294 -0.331598 9.61617
-1.2918 -0.875577 16.0162
-1.01098 -0.75885 14.6486
-0.239789 -0.381776 10.2322
-0.156814 -0.418492 10.6604
-0.138644 -0.390186 10.3293
-0.165625 -0.353636 9.90238
-0.961676 -0.458561 11.175
-0.288254 -0.379991 10.2353
-0.984224 -0.455413 11.1756
-1.41931 -1.29091 21.6339
-1.20991 -0.803293 15.7996
-0.832668 -0.365585 10.2111
-0.463335 -0.454486 11.3648
-1.12624 -1.01641 18.858
-1.11922 -0.62464 13.7555
-1.02469 -0.605255 13.4934
-0.176052 -0.292591 9.27393
-1.05367 -0.431366 11.1956
-1.08546 -0.762584 15.732
-0.273636 -0.356475 10.161
-1.15012 -0.798365 16.3552
-0.162162 -0.390324 10.6581
-0.521361 -0.261937 10.5268
-0.0773028 -0.355817 10.1763
-1.01003 -0.506025 12.4814
-1.12761 -0.566669 13.3745
-0.962479 -0.749653 16.2026
-0.261942 -0.336707 10.0084
-0.159426 -0.342 10.0865
-0.842208 -0.345757 10.2099
-0.261986 -0.352772 10.3122
-0.135269 -0.37429 10.6457
-1.26307 -1.05552 21.5127
-0.286553 -0.415561 11.3977
-0.226962 -0.41104 11.3238
-0.202435 -0.320086 9.85044
-0.854073 -0.411308 11.3915
-1.29047 -0.616663 14.7915
-0.105611 -0.314912 9.78903
-0.288045 -0.421202 11.6744
-1.43578 -1.14482 24.51
-1.40539 -0.726049 17.5205
-1.17291 -0.696946 16.981
-0.352953 -0.395033 11.4036
-1.09667 -0.489274 13.2573
-1.26333 -1.43419 31.0956
-1.003 -0.387721 11.4046
-0.378678 -0.622928 15.9441
-0.221787 -0.360736 10.8732
-1.13688 -0.368952 11.1032
-0.162198 -0.340501 10.5272
-0.20652 -0.334344 10.451
-1.15289 -0.360592 11.0578
-1.04943 -0.372118 11.3681
-1.0498 -0.386258 11.8428
-0.949845 -0.380164 11.7036
-0.132445 -0.321316 10.3618
-1.00351 -0.362912 11.3921
-0.266134 -0.311826 10.1932
-1.03304 -0.377335 11.8211
-1.04065 -0.411096 12.6308
-0.987844 -0.809423 22.6007
-0.36411 -0.392944 12.4138
-0.477292 -0.47476 14.9033
-0.287371 -0.344866 11.3607
-1.10062 -0.386928 12.6554
-0.925381 -0.36699 12.0904
-0.986559 -0.417999 13.5305
-0.992126 -0.421222 13.6215
-1.10902 -0.497892 15.7864
-0.595439 -0.466331 14.8887
-0.983943 -0.414475 13.6067
-1.05516 -0.458915 14.9075
-0.306916 -0.333113 11.2174
-0.139362 -0.303235 10.3411
-0.108199 -0.287297 9.87449
-0.914359 -0.359645 12.13
-0.915118 -0.361818 12.3367
-1.05812 -0.332126 11.5155
-1.02417 -0.386163 13.4904
-0.280036 -0.280177 9.96135
-1.05165 -0.314185 11.377
-0.475339 -0.179813 9.36367
-1.05614 -0.316993 11.799
-0.185097 -0.275026 9.95334
-0.369811 -0.299629 11.3243
-1.05566 -0.299773 11.5204
-0.458437 -0.29332 11.1728
-0.440615 -0.295904 11.3073
-0.209138 -0.263772 9.6261
-0.267206 -0.272972 10.2107
-1.07399 -0.285077 11.27
-0.919672 -0.286717 11.3733
-0.73979 -0.285642 11.2999
-0.570563 -0.281589 11.0333
-0.524035 -0.278468 10.8298
-0.519021 -0.27803 10.8013
-0.233695 -0.26447 9.91511
-0.169956 -0.259422 9.58614
-0.324997 -0.261144 10.2172
-0.89127 -0.286436 11.5951
-0.233914 -0.263913 9.98958
-0.170478 -0.381831 9.28703
-0.14379 -0.70182 10.2819
-0.144784 -0.682954 10.2166
-0.132635 -0.603433 9.94097
-0.113207 -0.599885 9.92849
-0.133118 -0.594926 9.93829
-0.183792 -0.39323 9.26946
-0.169064 -0.394998 9.28448
-0.189871 -0.384047 9.26089
-0.173634 -0.378955 9.27467
-0.172635 -0.378076 9.28016
-0.172522 -0.371912 9.27824
-0.170802 -0.354627 9.28147
-0.178256 -0.35306 9.28086
-0.0997282 -0.342707 9.44451
-0.101145 -0.31553 9.4405
-0.100582 -0.312001 9.44216
-0.101317 -0.301714 9.44007
-0.102594 -0.299804 9.43905
-0.892933 -0.666969 19.8372
-1.054 -0.458272 14.9288
-0.205781 -0.234831 9.43251
-0.184836 -0.23575 9.43198
-0.197194 -0.237811 9.57265
-0.393659 -0.23662 9.67604
-0.141521 -0.6928 10.2991
-0.142618 -0.672491 10.2759
-0.19288 -1.63612 13.8551
-0.42835 -0.237915 9.8059
-0.212146 -0.240668 9.62513
-0.223856 -0.240873 9.77935
-0.257043 -0.240199 9.88845
-0.338997 -2.06057 15.8626
-0.262797 -0.536233 9.87134
-0.225609 -0.559185 9.96334
-0.261004 -0.535804 9.87549
-0.228777 -0.242013 9.82052
-0.219315 -0.539124 9.91925
-0.227059 -0.602908 10.1918
-0.207112 -0.231251 9.43045
-0.238017 -0.241914 9.84043
-0.283892 -0.241672 9.8879
-0.519514 -0.437138 9.57065
-0.311686 -0.569143 10.183
-0.307306 -0.241411 9.94055
-0.192277 -0.232222 9.42734
-0.104431 -0.409317 9.5452
-0.346912 -0.537983 10.2334
-0.332872 -0.546961 10.2803
-0.309447 -0.527185 10.196
-0.108824 -0.406739 9.55958
-0.312215 -0.241446 9.93295
-0.390892 -0.240934 10.0343
-0.105063 -0.403189 9.55767
-0.184403 -0.232994 9.43387
-0.380427 -0.512758 10.2768
-0.104972 -0.393425 9.56931
-0.226908 -0.397601 9.60188
-0.858061 -0.504039 10.2887
-0.352661 -0.489781 10.2191
-0.255563 -0.390222 9.59812
-0.228674 -0.473372 10.1728
-0.371134 -0.469775 10.1748
-0.434287 -0.484467 10.2853
-0.744705 -0.609945 17.7254
-0.788119 -0.466252 10.1928
-0.19954 -0.379927 9.60332
-0.442673 -0.241741 9.86478
-0.104242 -0.376633 9.58749
-1.63547 -1.11918 14.7136
-0.44808 -0.471634 10.2516
-1.86959 -1.11127 14.7134
-1.50746 -1.13201 14.9617
-1.39081 -1.13344 14.9706
-1.34505 -1.13492 14.9805
-1.27373 -1.15827 15.1444
-0.237804 -0.433962 10.0244
-2.01319 -1.07731 14.687
-0.734265 -0.462656 10.3026
-0.811509 -0.443079 10.1725
-0.44085 -0.451098 10.2281
-0.242377 -0.718011 12.247
-0.441777 -0.453805 10.2775
-0.734693 -0.456016 10.3128
-0.933886 -0.235004 11.2283
-1.86897 -1.00208 14.6234
-1.54384 -1.06553 15.1156
-0.292151 -0.432967 10.1591
-0.26226 -0.4136 10.0075
-1.57355 -1.02499 14.8593
-0.207613 -0.398726 9.90234
-1.36298 -1.02843 14.9457
-0.177617 -0.245381 9.57759
-1.63165 -0.88411 13.8498
-0.315343 -0.459735 10.454
-0.449099 -0.434992 10.2683
-0.409983 -0.429619 10.2232
-0.210512 -0.392919 9.91631
-1.48248 -0.92296 14.5117
-1.24737 -0.92612 14.5993
-0.197633 -0.351278 9.60795
-0.134889 -0.335267 9.46854
-0.41716 -0.244341 9.99243
-0.445114 -0.426842 10.3359
-0.310872 -0.413313 10.2119
-1.70648 -1.88326 23.7092
-0.504636 -0.514253 11.1559
-0.779629 -0.404705 10.1897
-1.80974 -0.810322 14.0043
-1.22739 -0.813573 14.0279
-1.29871 -1.01938 15.9582
-0.315645 -0.246108 9.87192
-1.30689 -1.02441 16.092
-0.213513 -0.247555 9.62372
-0.917878 -0.631823 19.2563
-0.137363 -0.418198 10.3472
-0.992352 -0.524035 11.4057
-1.25652 -0.868933 14.7603
-0.245097 -0.401083 10.2021
-0.552502 -0.4947 11.1755
-0.432815 -0.410605 10.3365
-0.20673 -0.249025 9.85027
-0.107853 -0.337913 9.61999
-0.957035 -0.59081 12.2252
-0.0994919 -0.336468 9.61682
-0.189669 -0.334986 9.61436
-0.16689 -0.333869 9.60253
-1.26556 -0.841687 15.0343
-2.82541 -3.34193 41.6139
-0.226545 -0.399049 10.3195
-0.167374 -0.350464 9.81743
-0.236146 -0.250962 10.0439
-1.11757 -0.727997 13.9646
-1.11979 -0.726948 14.0258
-0.140338 -0.394964 10.3403
-0.9824 -0.466921 11.181
-0.797927 -0.465103 11.1584
-0.272231 -0.360597 9.97924
-0.164781 -0.353327 9.89633
-0.281711 -0.250495 9.87462
-1.21709 -0.516439 11.7827
-0.937216 -0.459878 11.1355
-0.308041 -0.250607 9.92015
-1.9728 -2.11347 30.2752
-0.139902 -0.406164 10.5405
-0.985569 -0.457671 11.1813
-0.193962 -0.325472 9.62273
-0.17264 -0.350626 9.93517
-0.105688 -0.337183 9.77449
-0.845517 -0.251444 10.3012
-0.833718 -0.370074 10.2195
-1.09734 -0.803796 15.5382
-1.45741 -1.33683 22.0751
-0.888713 -0.503059 11.8989
-1.15237 -0.774727 15.2835
-0.465855 -0.460627 11.4075
-0.155954 -0.403587 10.6824
-0.10845 -0.319101 9.61356
-1.05352 -0.438958 11.1801
-1.23805 -0.812933 15.9869
-0.130774 -0.437906 11.1547
-0.132012 -0.330219 9.77127
-0.109004 -0.317805 9.6115
-1.04837 -0.432245 11.1729
-1.75206 -1.32404 23.0202
-0.161601 -0.395648 10.6756
-0.84602 -0.251431 10.2964
-0.106153 -0.325003 9.77253
-0.963456 -0.499278 12.2374
-0.107471 -0.323676 9.77267
-0.416799 -0.253979 10.4028
-1.05734 -0.432034 11.3452
-0.261605 -0.337742 10.017
-0.0977859 -0.310397 9.61892
-0.82928 -0.346431 10.1769
-0.83415 -0.348617 10.2092
-0.978366 -0.743537 16.1727
-0.956443 -0.407136 11.1644
-1.53878 -1.31369 25.0541
-0.221606 -0.422205 11.3852
-0.134584 -0.372875 10.6286
-0.539281 -0.253674 10.3359
-0.959297 -0.402426 11.1388
-1.46953 -1.24966 24.3729
-0.405969 -0.256078 10.3981
-2.84909 -4.36494 75.6465
-0.203494 -0.233883 9.43474
-0.485863 -0.256265 10.4398
-1.1124 -0.394467 11.1601
-0.96261 -0.692227 16.0965
-0.287876 -0.432261 11.7754
-0.105624 -0.311797 9.77488
-1.11035 -0.387599 11.0956
-0.336062 -0.257934 10.3539
-0.226895 -0.256485 9.89163
-1.07641 -0.384906 11.1529
-0.899279 -0.41116 11.6148
-1.20075 -0.63616 15.755
-1.04966 -0.392459 11.4054
-0.983802 -0.389879 11.3567
-1.12209 -0.501603 13.4266
-1.30493 -0.759821 18.2086
-0.154554 -0.346088 10.5774
-0.10976 -0.295685 9.6217
-1.16519 -0.368915 11.0809
-1.13034 -0.465436 12.9538
-0.158255 -0.343082 10.5646
-1.11447 -0.552212 14.7854
-0.164516 -0.338839 10.5266
-0.100463 -0.292783 9.60941
-0.342236 -0.260065 10.3635
-0.883856 -0.266181 11.1868
-1.08512 -0.465254 13.1661
-0.156536 -0.336016 10.5153
-0.855377 -0.363023 11.1389
-1.04965 -0.370444 11.3668
-0.112423 -0.29652 9.76284
-1.12061 -0.353736 11.0721
-0.980989 -0.370752 11.4459
-1.00004 -0.39376 11.9546
-0.185695 -0.300278 9.87624
-1.05284 -0.373418 11.5854
-1.03751 -0.375786 11.7246
-1.04319 -0.414957 12.641
-0.372816 -0.26163 10.3082
-1.09752 -0.350776 11.2138
-1.08221 -0.349085 11.1728
-0.379979 -0.410623 12.7667
-0.362589 -0.385347 12.1384
-1.14977 -0.338228 11.0533
-1.04905 -0.493732 15.2496
-0.538429 -0.49502 15.275
-1.417 -0.683465 20.6802
-0.718935 -0.583765 17.9357
-0.334064 -0.340056 11.2498
-0.979607 -0.41808 13.5659
-0.296461 -0.340824 11.3612
-0.291671 -0.343131 11.4266
-0.108093 -0.288254 9.86588
-0.918431 -0.368712 12.2908
-1.03052 -0.412457 13.5801
-1.01832 -0.341838 11.6084
-0.9733 -0.356403 12.0526
-0.95104 -0.366215 12.352
-0.184391 -0.285946 9.88546
-1.05165 -0.330837 11.3747
-1.00888 -0.356739 12.1968
-0.396482 -0.325068 11.7925
-0.421984 -0.328134 12.0822
-0.960073 -0.316208 11.7551
-1.06097 -0.302373 11.4497
-1.04223 -0.289145 11.0887
-0.26992 -0.273127 10.1633
-1.18489 -0.376437 17.2297
-0.537727 -0.280477 10.8947
-0.503464 -0.284217 11.1399
-0.373176 -0.287137 11.3282
-0.174125 -0.259402 9.56783
-0.95694 -0.278289 11.1673
-0.185944 -0.262083 9.86433
-0.214299 -0.259148 9.63398
-0.23822 -0.261001 9.89827
-0.951244 -0.27243 11.195
-0.350552 -0.264859 10.4278
-0.315463 -0.260937 10.0413
-0.967525 -0.269119 11.1727
-0.889381 -0.271657 11.4534
-4.55425 -5.01668 81.7975
-3.04819 -5.30692 86.2213
-0.159288 -0.556523 9.86994
-0.23081 -0.585699 9.9782
-0.108743 -0.413391 9.52485
-0.0937274 -0.415207 9.5721
-0.108805 -0.408951 9.54722
-0.104879 -0.40227 9.55627
-0.105661 -0.400092 9.55979
-0.104621 -0.389393 9.57511
-0.103193 -0.384889 9.58894
-0.143522 -0.671656 10.2737
-1.06148 -0.495545 15.2605
-0.929542 -0.697617 20.5764
-0.129552 -0.685941 10.3304
-0.717626 -0.468634 14.9546
-0.262897 -0.535137 9.86666
-11.267 -16.132 70.2945
-0.14448 -0.569919 10.0371
-0.116661 -0.483565 9.70142
-0.241534 -0.564405 10.0409
-0.310509 -0.552579 10.1966
-0.331551 -0.535445 10.2076
-0.263958 -0.23207 9.43525
-0.311537 -0.527426 10.2207
-0.333495 -0.517542 10.1973
-0.175492 -0.394511 9.55136
-0.243519 -0.519457 10.2157
-0.377023 -0.52776 10.2706
-0.228239 -0.399242 9.59235
-0.310974 -0.502548 10.1822
-0.331866 -0.502002 10.189
-0.392554 -0.506444 10.2241
-0.257302 -0.390973 9.58549
-0.383385 -0.229167 9.57299
-0.354721 -0.493379 10.1999
-0.791719 -0.491647 10.2252
-0.450499 -0.493899 10.2566
-0.843033 -0.48325 10.2181
-0.726541 -0.501246 10.3262
-0.375826 -0.479301 10.1894
-0.197514 -0.383127 9.61587
-0.440128 -0.497508 10.3358
-0.234703 -0.46249 10.1161
-0.444362 -0.479536 10.2467
-0.423062 -0.475635 10.2219
-0.402493 -0.464931 10.1984
-0.183309 -0.387247 9.68956
-0.354721 -0.463039 10.1971
-0.80176 -0.468032 10.2463
-0.78155 -0.468962 10.2644
-1.86853 -1.03783 14.1689
-1.71439 -1.12117 14.7341
-1.6402 -1.1267 14.771
-1.62638 -1.12756 14.7767
-1.51957 -1.10991 14.6556
-2.01522 -1.10301 14.6635
-1.65562 -1.09501 14.605
-1.60222 -1.11901 14.7691
-0.340168 -0.459884 10.2355
-0.113239 -0.38986 9.76123
-1.34182 -1.14798 15.073
-1.44519 -1.06735 14.6129
-1.27308 -1.16638 15.3147
-0.44789 -0.448398 10.2449
-0.372648 -0.442984 10.2176
-1.3649 -1.09246 15.0694
-0.211094 -0.400274 9.9117
-1.42177 -1.03893 14.7272
-1.143 -0.69842 12.2009
-1.41564 -1.0325 14.7346
-0.299201 -0.407275 9.98682
-0.377286 -0.429776 10.1711
-0.444971 -0.439075 10.2569
-0.29264 -0.401982 9.96892
-0.787916 -0.435773 10.2488
-1.85429 -0.983018 14.5834
-1.36659 -1.02251 14.8895
-0.335071 -0.447023 10.3472
-0.213324 -0.391071 9.90535
-1.63249 -0.880683 13.8248
-0.19028 -0.35331 9.61584
-1.27267 -1.00322 14.9805
-0.205061 -0.383991 9.90423
-0.84488 -0.533137 11.1707
-1.46769 -0.930556 14.5038
-0.441264 -0.424409 10.2566
-1.43374 -0.920201 14.4762
-0.315053 -0.41888 10.224
-0.574963 -0.525743 11.2612
-0.534412 -0.514782 11.217
-0.127068 -0.385341 10.0301
-1.25354 -0.830237 14.1683
-0.542466 -0.502042 11.1273
-1.2629 -0.812533 14.0657
-1.3059 -1.02673 16.0694
-0.246647 -0.395448 10.1547
-1.31397 -1.03169 16.2025
-0.154871 -0.44003 10.5918
-0.190346 -0.336292 9.61048
-0.45262 -0.412195 10.3498
-0.429836 -0.409564 10.3244
-0.109304 -0.335541 9.61226
-1.12585 -0.697728 13.1431
-1.31604 -1.00743 16.1471
-1.31577 -1.01459 16.2165
-0.551578 -0.494398 11.1665
-0.44018 -0.500919 11.2286
-0.143844 -0.42949 10.5332
-1.14809 -0.747489 13.685
-0.168878 -0.331376 9.59209
-0.426001 -0.498945 11.2693
-1.605 -1.62332 22.6236
-0.282861 -0.391568 10.2189
-0.240342 -0.391267 10.2335
-0.268141 -0.371068 10.0439
-0.107556 -0.330295 9.62155
-0.134332 -0.391615 10.2738
-0.147542 -0.416558 10.5578
-0.369532 -0.475748 11.2193
-0.354243 -0.475093 11.2121
-0.977833 -0.469369 11.1889
-0.947047 -0.46692 11.162
-0.956547 -0.544479 12.0062
-0.301551 -0.404542 10.4767
-0.993517 -0.468656 11.2142
-0.962935 -0.466439 11.1895
-1.04978 -0.688761 13.6434
-1.67342 -1.55255 23.1807
-0.357278 -0.467467 11.1947
-0.28379 -0.382224 10.2739
-0.968849 -0.542146 12.1165
-0.172055 -0.350625 9.93519
-0.106526 -0.336426 9.77341
-0.997695 -0.549488 12.2491
-0.170778 -0.349111 9.93419
-1.24259 -0.707165 14.1437
-0.833156 -0.369455 10.2158
-0.144003 -0.331641 9.76067
-0.835174 -0.367741 10.2165
-0.109858 -0.317979 9.61051
-1.10852 -0.807315 15.6109
-0.157888 -0.401919 10.6489
-1.46208 -1.3432 22.3688
-0.467425 -0.462872 11.437
-0.272075 -0.344511 9.96666
-0.189926 -0.315634 9.60758
-1.05891 -0.439416 11.189
-1.10883 -0.45856 11.4729
-1.23476 -0.80726 15.9391
-0.429635 -0.453153 11.3969
-0.149272 -0.334723 9.89531
-0.136205 -0.337152 9.92679
-1.73958 -1.31758 22.9318
-0.159214 -0.386368 10.6586
-0.106652 -0.320107 9.76816
-1.07234 -0.422455 11.2452
-0.832739 -0.347392 10.2042
-1.13008 -0.699659 15.2885
-0.506383 -0.672565 14.8915
-0.454319 -0.621537 14.1549
-1.04347 -0.499771 12.4706
-0.99751 -0.494612 12.3944
-1.02489 -0.567833 13.4703
-0.979364 -0.745772 16.2203
-0.145734 -0.362964 10.483
-0.961378 -0.403219 11.1373
-3.85954 -4.23791 69.6524
-13.5871 -24.2491 374.957
-0.950401 -0.4005 11.1404
-1.20951 -0.580697 13.9449
-0.289201 -0.415636 11.3692
-0.152585 -0.371177 10.6765
-0.107831 -0.302865 9.61386
-0.964084 -0.396605 11.1252
-1.03934 -0.489681 12.602
-1.15273 -0.580304 14.0402
-0.188057 -0.354159 10.4444
-0.155668 -0.338947 10.2028
-1.10395 -0.392973 11.1149
-0.944968 -0.696746 16.0282
-1.11193 -0.389402 11.1038
-0.186895 -0.315684 9.87718
-0.108848 -0.299583 9.61052
-0.895877 -0.411936 11.5891
-1.2083 -0.714508 16.9811
-1.17071 -0.700607 16.9149
-0.243021 -0.386074 11.2427
-0.422379 -0.584108 14.9487
-0.344282 -0.589777 15.2001
-0.157586 -0.344205 10.5679
-0.124134 -0.315658 10.0294
-1.0284 -0.390571 11.5149
-1.0788 -0.413546 11.9591
-1.06156 -0.468567 13.0215
-1.12353 -0.37586 11.292
-1.05006 -0.405833 11.8844
-1.12115 -0.554751 14.8322
-1.05623 -0.456436 12.9897
-0.154227 -0.335181 10.52
-1.1243 -0.359069 11.0721
-1.0297 -0.37082 11.3158
-0.971343 -0.374402 11.3898
-1.10981 -0.486126 13.7176
-0.278239 -0.317838 10.2051
-1.11801 -0.530948 14.8076
-1.05387 -0.373486 11.5896
-1.00586 -0.410095 12.4161
-1.08965 -0.397666 12.2332
-0.856255 -0.728093 20.5999
-1.05413 -0.351419 11.383
-1.07056 -0.382062 12.1637
-1.25317 -0.656951 19.168
-0.154468 -0.334185 10.9349
-1.2422 -0.628147 18.7516
-0.458683 -0.449184 14.0345
-0.400228 -0.37724 12.1409
-0.103985 -0.287219 9.7691
-1.08854 -0.33779 11.1882
-1.15724 -1.10016 24.8314
-0.361428 -0.358504 11.7446
-0.185308 -0.289996 9.87869
-0.108211 -0.280249 9.61271
-1.0604 -0.348996 11.5878
-1.02636 -0.420728 13.6082
-1.22702 -0.597194 18.5813
-1.22656 -0.601993 18.7165
-0.200298 -0.249324 9.85144
-0.576927 -0.493268 15.6472
-0.406798 -0.374547 12.301
-0.36526 -0.356007 11.7783
-0.271661 -0.365725 12.0511
-0.14196 -0.330874 11.068
-0.108841 -0.288201 9.8656
-0.968164 -0.369235 12.2797
-1.0898 -0.465259 15.0849
-1.06658 -0.463055 15.0203
-0.30152 -0.33941 11.402
-1.12909 -0.32518 11.0779
-0.911982 -0.364161 12.2573
-0.997617 -0.356679 12.1587
-0.139564 -0.302679 10.4488
-0.952571 -0.336825 11.7667
-0.186922 -0.281811 9.87716
-0.276095 -0.281363 9.91047
-1.05426 -0.319134 11.3836
-1.05989 -0.323087 11.5315
-1.1079 -0.309138 11.1185
-1.10273 -0.309191 11.1206
-0.122682 -0.280085 10.0289
-0.106102 -0.273946 9.77537
-0.388001 -0.315264 11.7937
-0.166046 -0.235372 10.0211
-0.939829 -0.309551 11.7034
-0.460256 -0.29329 11.1978
-0.272169 -0.27344 10.1878
-0.514566 -0.281317 10.8125
-0.504511 -0.28699 11.1794
-0.414416 -0.285243 11.0655
-0.9934 -0.29154 11.7146
-0.75819 -0.290082 11.6096
-0.573816 -0.281857 11.0286
-0.47185 -0.280235 10.9134
-1.05047 -0.282516 11.3
-0.236518 -0.26373 9.95318
-0.712987 -0.27024 10.7199
