# .PCD v.6 - Point Cloud Data file format
FIELDS x y z
SIZE 4 4 4
TYPE F F F
COUNT 1 1 1
WIDTH 1716
HEIGHT 1
#VIEWPOINT 0 0 0 1 0 0 0
POINTS 1716
DATA ascii
0.150942 -0.208763 1.2782
0.171579 -0.216988 1.31719
0.100071 -0.198925 1.23695
0.0866309 -0.201471 1.26024
0.128938 -0.188394 1.22419
0.0201386 -0.190355 1.24546
0.0149446 -0.183884 1.22994
0.212527 -0.175319 1.39083
-0.502106 -0.279009 2.20286
0.153136 -0.134585 1.20884
0.153001 -0.13178 1.19685
0.204062 -0.141232 1.36363
-0.606665 -0.30178 2.6422
-0.599391 -0.235231 2.13593
-0.674301 -0.278078 2.79766
0.49543 -0.539987 5.35551
-0.6449 -0.251081 2.7448
0.113231 -0.167005 1.90361
-0.676274 -0.257342 2.90357
-0.455986 -0.0136891 1.7706
-0.61867 -0.112381 3.27914
0.105493 -0.147747 1.93185
0.0645078 0.0134995 0.937456
-0.617006 -0.143234 2.12051
-0.598191 -0.0969535 2.14014
-0.860431 -0.23171 5.12253
-0.888509 -0.24084 5.31828
-0.634983 -0.0989444 2.33462
-0.835595 -0.222388 5.04926
0.0567075 0.0170501 0.949302
0.0452985 -0.0192515 1.36986
-0.0778985 0.0116916 1.09469
0.0446087 0.00759718 1.26076
0.0571909 -0.00230005 0.960206
-0.464443 -0.0361841 1.81072
0.136441 -0.0543633 1.21438
-0.679666 -0.123186 3.37053
0.176395 -0.204436 1.32261
0.086288 -0.196697 1.28953
0.0933377 -0.193096 1.27721
0.159925 -0.193963 1.28779
0.0698931 -0.194812 1.33806
0.200564 -0.197722 1.35367
0.0679801 -0.192175 1.33058
0.0784987 -0.190411 1.3347
0.120822 -0.168861 1.21548
0.205675 -0.19934 1.38391
0.13092 -0.170216 1.2292
0.170153 -0.182192 1.30952
-0.618299 -0.33248 2.25509
-0.450533 -0.00642348 1.80834
0.0890525 -0.278775 2.21557
0.133419 -0.136685 1.22357
-0.598416 -0.302922 2.48088
0.19907 -0.135937 1.35235
-0.560014 -0.217553 2.08276
0.212486 -0.0787916 1.36012
0.0622615 -0.257566 2.68623
0.0508128 -0.0118122 1.1519
0.0834904 -0.193574 2.28981
-0.565101 -0.163944 2.09956
0.0940876 -0.0463359 1.3595
0.215588 -0.0871322 1.35098
0.220392 -0.125542 1.95666
0.241133 -0.0936148 2.14504
0.0509763 0.00579357 1.2212
-0.107189 0.00836809 1.36807
-0.01246 0.00188364 1.38726
-0.510683 0.000346238 2.05168
0.0495435 -0.00371617 1.73174
-0.0303055 -0.0922506 3.6204
0.0971781 -0.0878834 1.90005
-0.605751 -0.402363 2.2536
-0.605327 -0.387596 2.2523
-0.586471 -0.36564 2.23826
-0.58234 -0.34447 2.20052
0.100675 -0.145164 1.9489
-1.04354 -0.592351 7.26052
0.121434 -0.139393 1.21914
-0.645036 -0.277017 4.14312
-0.488219 -0.0084105 2.19679
0.122731 -0.135081 1.22021
0.123739 -0.134977 1.21947
0.0976332 -0.041442 1.36794
-0.584784 -0.224724 2.30953
0.238049 -0.115483 1.50818
-0.515563 -0.0314284 2.1664
-1.07456 -0.42567 4.70049
-0.0468964 0.00643742 1.54042
0.24399 -0.0953221 2.13318
-0.52243 -0.0176192 2.17457
-0.648754 -0.303761 2.63519
-0.548366 -0.172591 2.2245
0.0759649 -0.247576 2.28938
-0.571035 -0.237859 2.2528
0.066063 -0.0693638 2.17491
0.0554348 -0.0107678 1.14545
0.675468 -0.587631 5.61713
-0.806559 -0.324618 6.7613
0.437793 -0.17482 2.4543
-0.526114 -0.369911 2.24814
-0.53856 -0.354857 2.2583
0.164889 -0.107726 1.48735
0.161106 -0.120875 3.28256
-0.594753 -0.217059 3.1432
0.339718 -0.0872248 2.00608
-0.660229 -0.178786 4.42607
-0.711313 -0.0701398 3.39158
-0.588327 -0.21379 3.1467
-0.50498 -0.0496991 2.26312
0.101922 -0.119903 1.96544
0.0356303 -0.229805 3.16303
0.0991823 -0.251315 1.82723
-0.52199 -0.321947 2.27966
-0.542146 -0.000790577 2.35007
-0.657172 -0.323834 2.65508
0.0786524 -0.0425957 1.405
0.0773493 -0.0426141 1.40563
0.157734 -0.194857 1.82594
-4.43165 -3.58316 54.894
-0.747871 -0.46705 8.24042
-0.764268 -0.473614 8.53074
-0.761045 -0.12786 3.04747
-0.128462 -0.369013 5.18035
0.00186109 -0.331612 2.9788
-0.0245426 -0.0396367 3.00258
-0.275272 -0.0577625 4.5758
-0.738925 -0.131051 3.04202
-0.533432 -0.0404301 2.86083
-0.172127 -0.0110984 2.12422
-0.717714 -0.404092 3.99141
-0.49144 -0.0424615 2.77632
0.260248 -0.222559 2.62572
-0.563155 -0.043201 2.83524
-0.00144657 0.0154412 1.62132
-0.585736 -0.263066 3.03187
0.0474588 -0.218257 3.05884
-0.839988 -0.393245 5.79198
-1.34601 -1.19958 17.8405
0.0382051 0.0065396 1.56004
-0.636858 -0.402864 3.9795
-0.0531272 -0.070212 4.32899
-0.597227 -0.206094 3.13799
-1.32123 -0.487721 7.38764
-0.105248 0.00392764 1.58631
-0.213435 0.00615549 1.8021
0.139662 -0.232888 3.45157
-1.20315 -0.941318 20.2895
-0.670414 -0.0984378 5.76518
-1.16705 -1.01988 13.5022
-0.823332 -0.437206 13.3434
0.155525 -0.196388 1.82321
-0.165301 -0.397598 6.15413
-0.0421068 -0.485164 4.08371
-0.688549 -0.182733 5.63546
-0.686248 -0.15162 6.27238
-0.117258 -0.322981 6.87838
-0.599266 -0.367623 3.94719
-0.133507 -0.374127 5.70184
-0.507421 -0.0706601 2.92679
-0.0135731 -0.380385 4.02423
-0.645283 -0.452781 9.35626
-0.911807 -0.466243 14.7736
-0.0654453 -0.425983 4.47758
-0.705254 -0.250822 5.14026
-1.34349 -1.01457 13.4353
-0.678969 -0.442813 4.00774
-4.6657 -4.61685 22.4427
-0.696278 -0.18456 3.745
0.0462726 -0.00311414 1.91372
0.0934471 -0.194205 1.93416
-0.686955 -0.170686 3.47706
0.222925 -0.133341 2.57373
0.241703 -0.155703 2.30711
-1.44829 -0.928559 14.6535
-0.709507 -0.133172 3.74666
-0.880696 -0.249943 6.70869
0.2346 -0.165852 2.31022
-0.0990426 -0.0230541 2.54634
-0.505431 -0.0732109 2.89892
-0.538829 -0.326025 3.01893
-0.558491 -0.0728653 2.88812
-0.598026 -0.282727 3.02516
0.0751972 -0.225525 3.0639
0.00671587 -0.0213423 2.26955
-0.614288 -0.305974 3.02128
-0.510162 -0.0221405 2.99559
-0.0855296 -0.405007 5.17399
-1.13155 -0.679007 8.40842
-0.0525295 -0.408106 4.20344
-0.666574 -0.170582 5.46161
-0.57697 -0.386185 3.95091
0.198824 -0.141448 2.28033
0.0556602 -0.399056 2.58219
0.0053614 -0.409322 2.67544
-0.655326 -0.1129 4.26816
-1.14425 -0.721047 8.42574
0.0434197 -0.382422 2.5505
0.0145791 -0.395243 2.69728
-0.705956 -0.21648 7.78992
-0.0153556 -0.38928 2.67887
0.124963 -0.199599 1.81919
0.0713118 -0.321904 2.77327
-0.080855 -0.00381537 1.64127
-0.555351 -0.0115305 2.70274
-0.0350888 -0.00701451 1.84892
-0.0453171 -0.381389 2.70373
0.123147 -0.252541 1.88281
0.00195837 -0.243034 4.28428
-0.637548 -0.423231 5.17994
0.000948785 -0.0809539 2.81063
-0.221102 -0.28529 9.79927
0.0208284 -0.00908829 2.02737
-0.647417 -0.413186 3.06066
-0.0271096 -0.351337 2.66126
-0.778987 -0.316816 10.9006
-0.728667 -0.559854 6.50496
-0.742411 -0.0891137 3.12211
-0.75992 -0.35277 6.02715
-0.0386724 -0.34201 2.63723
0.00831411 -0.346234 2.66629
-0.0137948 -0.381192 3.8566
0.144388 -0.222874 1.82516
-0.00943953 -0.307839 3.77546
0.00665013 -0.255076 4.23943
-0.697844 -0.388984 3.93528
-0.0745486 -0.274023 7.80807
-1.12426 -0.595811 17.5044
-0.434667 -0.255477 4.25318
-0.948575 -0.217207 7.21134
-0.00647468 -0.336339 2.65849
0.110203 -0.223238 1.86822
0.0600758 -0.266117 2.71068
-0.722486 -0.557866 6.66026
0.0706544 -0.0685928 2.22324
-0.627749 -0.371344 3.00497
0.0845004 -0.333253 2.72143
-0.591324 -0.309587 2.57059
0.147782 -0.209267 1.82156
0.165039 -0.211711 1.83965
-0.554615 -0.369147 3.06435
-0.593235 -0.352195 2.98663
0.0325226 -0.358865 3.0093
0.0729259 -0.250998 1.85315
0.124623 -0.238436 1.88081
0.0321559 -0.330985 2.67399
0.0862251 -0.189786 1.94473
0.0634865 -0.259651 2.68716
-0.0117227 -0.383512 4.09044
-0.617518 -0.204357 3.16803
0.214961 -0.120973 2.39494
0.0793532 -0.134124 2.69226
-0.714264 -0.158993 6.50707
-0.46718 -0.0286993 2.17463
0.042485 0.0046732 1.38118
0.042212 0.00245017 1.37985
0.0449155 -0.0048027 1.25063
0.0471175 -0.00782807 1.2567
0.365005 -0.188589 2.61958
0.0466565 -0.00891504 1.25773
0.0746603 -0.0490575 1.37475
0.0873134 -0.0380714 1.41125
0.106468 -0.0369306 1.43152
0.086609 -0.0357654 1.4108
0.0531964 -0.0261588 1.34216
0.109883 -0.249238 1.83685
0.0434028 0.0026469 1.38305
0.0862011 -0.412562 2.61685
0.0526681 0.00168083 1.37609
0.0435456 -0.352294 2.39822
-0.0023261 -0.460768 3.01201
0.0924976 -0.199398 1.93591
0.855849 -0.510633 3.78537
-0.586159 -0.288347 2.52261
0.0535901 -0.00176796 1.37093
0.0463656 -0.0122089 1.41189
0.25271 -0.143626 1.96011
0.223767 -0.157737 2.11679
0.0519582 -0.00334391 1.37073
-0.498055 -0.149035 2.34365
-0.856038 -0.511023 6.56614
0.047055 -0.0126913 1.37251
0.259812 -0.108684 2.06509
0.177486 -0.122814 2.32135
0.0548248 -0.0481661 1.43056
0.0565411 -0.0454447 1.37696
0.171042 -0.118487 2.90582
0.174637 -0.12961 3.25511
0.16113 -0.116178 3.14199
0.0517611 -0.0325266 1.36781
0.0471302 -0.0252938 1.37787
-0.48143 -0.0106906 2.30878
0.0163332 -0.014359 2.14084
0.0473586 -0.0337969 1.42925
0.0167342 -0.0155865 2.17917
-0.105829 -0.0153683 2.1882
-0.170087 -0.0148155 2.25775
0.0345331 -0.438344 2.68173
-0.552212 -0.0113541 2.69709
0.0222134 -0.423241 2.64543
0.0237112 -0.0184343 1.94245
0.0650647 -0.225655 1.82644
-0.09185 -0.0209232 2.55265
-0.103414 -0.0229153 2.53843
0.143406 -0.221458 1.82116
0.157853 -0.222744 1.83143
0.160653 -0.224403 1.83872
0.00226276 -0.413542 2.69705
0.131791 -0.219887 1.8289
0.134606 -0.216331 1.84284
0.146377 -0.210268 1.81962
0.0811076 -0.0258811 1.91326
0.103959 -0.306737 2.28486
2.42796e-05 -0.0274739 2.76419
0.07787 -0.213749 1.84734
0.0417162 0.00485839 1.48305
-0.0307209 -0.384325 2.69345
0.0842456 -0.295751 2.27231
0.150856 -0.199501 1.81995
0.0998236 -0.204342 1.85027
-0.516166 -0.317537 2.4326
-0.62609 -0.432718 3.01086
0.0882896 -0.210897 1.88888
0.0259621 -0.0333938 3.06393
0.154971 -0.192763 1.81872
-0.096659 -0.00324856 1.65374
0.0081789 -0.354223 2.67208
-0.119448 -0.0112845 2.00907
-0.031067 -0.34428 2.64302
-0.599695 -0.398134 2.98993
0.0996235 -0.335381 2.64986
-0.593237 -0.322499 2.60278
0.0287222 -0.332127 2.64488
-0.668524 -0.374375 2.90199
0.0416111 0.00504889 1.48656
-0.108784 -0.00188548 1.59113
-0.634204 -0.380053 3.00338
1.35939 -0.80798 5.51508
0.0612711 -0.0305579 1.8986
-0.0241492 -0.0417061 3.1193
-0.655633 -0.371729 3.01498
-0.578391 -0.380873 3.06748
0.0655742 -0.318199 2.68686
-0.538231 -0.372466 3.03253
1.19289 -0.834655 5.7443
1.51787 -0.798021 5.52112
1.5142 -0.790541 5.4768
-0.542885 -0.369465 3.03018
-0.612541 -0.0533489 4.63005
0.0943154 -0.192026 1.95798
-0.612151 -0.358307 2.97983
0.0277351 -0.359737 2.97695
0.0312589 -0.361547 3.00325
0.0680984 -0.310352 2.69187
-0.568276 -0.362873 3.03788
1.21391 -0.823956 5.82553
-0.491622 -0.260108 2.41919
1.24055 -0.830709 5.90434
0.0429271 -0.00434107 1.90649
-0.0204167 -0.292736 2.6377
0.102091 -0.166139 1.84303
-0.599775 -0.348313 3.02858
-0.0065833 0.0287535 1.63827
1.5225 -0.714695 5.35456
0.108631 -0.179825 1.96014
1.21797 -0.700855 5.30648
1.34402 -0.703404 5.32062
1.39651 -0.697024 5.27841
1.22307 -0.871678 6.45484
1.17698 -0.697022 5.31787
1.44042 -0.701672 5.34326
-0.552253 -0.33932 3.03666
0.0220053 -0.00449276 1.6774
1.31811 -0.70427 5.39881
9.65984e-05 -0.332141 2.99597
-0.582967 -0.328095 3.01417
0.0860403 -0.170931 1.94312
-0.650081 -0.310533 2.91364
-0.64015 -0.296576 2.8508
-0.609593 -0.31801 2.9983
-0.543544 -0.338835 3.15995
-0.648598 -0.432407 3.81411
-0.0673547 -0.471773 4.10478
1.16325 -0.896813 7.06938
-0.546664 -0.333537 3.16151
-0.536707 -0.0412674 2.86597
0.0980771 -0.163039 1.94847
-0.547497 -0.323548 3.12921
-0.288846 -0.0824766 5.0203
-0.666135 -0.273668 2.82179
0.116775 -0.157956 1.94736
-0.634356 -0.264295 2.80295
0.125312 -0.293751 3.01258
1.19664 -0.635181 5.59806
-0.645716 -0.408496 3.96162
-0.596726 -0.283534 3.00782
-0.709208 -0.404141 3.95821
-0.639271 -0.407931 3.98658
0.0767374 -0.414723 4.02535
-0.198485 -0.0762691 4.58364
-0.733386 -0.0728323 4.40193
-0.750343 -0.295151 3.12355
0.0820782 -0.415412 4.06124
-0.505251 -0.0512881 2.8952
-0.576765 -0.272578 2.98095
-0.0286636 -0.385737 3.88619
0.0571063 -0.417221 4.13944
-0.692059 -0.390165 3.9663
-0.688024 -0.388426 3.98294
-0.56222 -0.39135 4.00448
-0.635553 -0.272493 3.04489
-0.72165 -0.374344 3.89761
0.12049 -0.294127 3.23354
0.0474433 -0.031522 1.43601
-0.424977 -0.0935708 5.41397
0.176813 -0.218851 2.63233
-0.616385 -0.238078 2.83542
-0.619808 -0.367594 3.96477
-0.485606 -0.0899036 5.1873
0.191818 -0.325268 3.57821
-0.488328 -0.0449911 2.34079
0.0895645 -0.477811 4.99877
-0.629106 -0.251722 3.02218
-1.02944 -0.446737 4.83256
-0.664033 -0.355883 3.99615
-0.674597 -0.308305 3.59264
-0.646854 -0.351099 3.98669
-0.0821428 -0.35298 4.02693
0.0736477 -0.211887 2.70702
0.230439 -0.167972 2.30963
-0.574478 -0.340743 4.03143
0.103784 -0.12915 1.97002
0.235655 -0.162914 2.29347
-0.0323035 -0.448999 5.2207
0.0153525 -0.354602 4.27246
0.0633448 -0.234964 3.07095
0.0900311 -0.152788 2.24583
-0.611994 -0.224677 3.03566
-0.698823 -0.565963 6.55023
0.102847 -0.122152 1.96352
0.216387 -0.139898 2.14348
-0.702888 -0.568169 6.64628
0.0653939 -0.003251 1.90294
0.237807 -0.15151 2.27959
-0.561034 -0.29844 3.86858
-0.644112 -0.42546 5.21245
-0.0228791 -0.276901 3.66392
0.109908 -0.108896 1.86206
-0.665917 -0.103827 5.71006
0.0811682 -0.00404862 1.92287
0.0289985 -0.043379 2.02007
-0.620724 -0.257332 3.57402
0.142394 -0.236964 3.32785
-1.21448 -0.649594 8.16531
-0.484093 -0.100228 5.17268
-0.0799856 -0.53995 6.87845
-0.589044 -0.212474 3.16526
0.234711 -0.125499 2.13167
0.160299 -0.219272 3.25889
0.0410863 0.00142527 1.4672
0.236038 -0.119993 2.11854
-0.739084 -0.451956 6.26647
0.242408 -0.130775 2.26972
-0.455036 -0.293914 4.3577
0.0593769 -0.186223 2.99163
-0.073162 -0.00103256 1.5517
-1.31281 -0.985292 13.2557
-1.30296 -0.989656 13.3111
-0.121824 -0.350114 5.11998
0.245971 -0.115505 2.11691
0.0400593 -0.255349 3.95453
-0.703794 -0.289454 4.47404
-0.56387 -0.0607262 2.88657
-0.196858 5.92771e-06 2.47524
-0.0272849 -0.327472 5.09298
0.0540315 -0.177136 3.0418
0.0512676 -0.00135707 1.46265
0.110571 -0.096943 1.94728
-0.63106 -0.208531 3.53289
-0.167743 -0.399766 6.17122
0.00788197 -0.288536 4.62397
-0.48457 -0.116512 5.44843
-0.971505 -0.389808 6.14603
0.0980893 -0.093244 1.93058
0.0562032 -0.16861 3.03193
-1.03542 -0.678982 10.5675
-0.162557 -0.332439 5.4728
-3.34516 -2.77104 41.9873
0.0197389 -0.0517177 2.14946
-0.434525 -0.238231 4.2224
-1.01846 -1.40464 21.9499
0.00288846 -0.242173 4.269
-0.680214 -0.1711 3.25417
-3.14224 -3.27035 51.2983
-4.04839 -4.30782 67.3834
0.108655 -0.087945 1.94293
-0.464029 -0.328571 13.4006
0.179349 -0.139428 2.77286
0.220648 -0.108593 2.31177
0.147527 -0.155568 3.11402
-0.705304 -0.171746 3.45852
-0.718422 -0.276057 5.20909
-0.716185 -0.185754 3.75255
-1.33252 -0.397189 7.39643
-1.01685 -0.318773 6.04213
-1.07763 -0.670016 12.0638
0.0302987 -0.178514 3.60388
-0.401965 -0.175446 7.15725
-0.696116 -0.255583 5.03605
-0.937316 -0.627703 11.5614
0.0158672 -0.194019 4.07072
-0.697572 -0.145781 3.2646
0.0338738 -0.204515 4.34002
-0.74108 -0.131905 3.05512
-0.739744 -0.127106 3.01223
-0.734228 -0.301478 6.44205
-0.640956 -0.454059 9.44004
0.166151 -0.196025 4.335
0.183065 -0.109393 2.63027
-0.00620702 -0.0113762 2.01314
-0.745725 -0.336904 7.29533
0.0447873 -0.0173785 1.45529
-0.99389 -0.166561 6.54864
0.174542 -0.10676 2.66305
-0.725282 -0.337483 7.64374
-0.856752 -0.667449 15.0315
-0.616879 -0.0739707 2.93564
-0.977568 -0.320173 7.64093
-0.682895 -0.121167 3.29592
-0.684988 -0.125755 3.40507
-0.00242419 -0.0106026 2.07925
0.0514734 -0.0444241 1.4411
0.0692487 -0.0099116 2.03085
-0.705542 -0.132177 3.72295
-0.641333 -0.154142 4.27525
-0.0228725 -0.180185 4.90628
-0.749633 -0.157753 4.48271
-0.000877602 -0.182762 5.1017
0.0193434 -0.0097527 2.03838
0.110427 -0.059845 1.95412
-0.741685 -0.195314 5.9519
-0.781902 -0.221336 6.70681
-0.783006 -0.392432 12.0597
-0.349992 -0.23723 7.37826
-0.285119 -0.19656 6.15394
0.226434 -0.0693396 2.62264
-0.858122 -0.368691 11.7565
-0.74079 -0.0888182 3.1031
-0.198171 -0.278604 9.23532
-0.736994 -0.0860422 3.0997
-0.855254 -0.186772 6.51496
-0.858794 -0.352991 12.14
0.0207847 -0.138378 4.82871
-0.736186 -0.0830611 3.08892
-0.107363 -0.139242 5.2271
0.024373 -0.073981 2.8063
0.0578885 -0.0529458 2.02656
0.0727416 -0.0504929 1.93498
0.0439438 -0.0234316 1.90477
0.046269 -0.0192223 1.36596
0.0544051 -0.0173876 1.35273
0.0442335 -0.0108901 1.36976
0.115869 -0.256119 1.85188
0.235351 -0.0999993 1.79209
0.0544315 -0.0482645 1.43043
0.0515906 -0.0418219 1.42306
0.0523493 0.00213729 1.37504
0.0429653 0.000887666 1.3822
0.0458079 -0.0187746 1.39183
0.0471738 -0.0145747 1.37754
0.146259 -0.233192 1.84685
0.147773 -0.231485 1.84004
0.0745871 -0.22588 1.83532
0.127478 -0.229655 1.89384
1.67449 -1.17722 8.39936
0.242972 -0.221579 2.63237
0.374368 -0.183004 2.62677
0.0860525 -0.22676 1.85557
0.220066 -0.113249 1.9538
0.250897 -0.112302 1.94294
0.267595 -0.107859 1.95772
0.148552 -0.0968922 2.0041
-0.809086 -1.50913 22.922
0.0439505 -0.00311854 1.46455
0.174642 -0.108239 2.669
-0.487579 -0.0444905 2.33105
0.0455904 -0.0320368 1.47274
0.0447024 -0.0306177 1.44999
0.0417379 0.00502054 1.47028
0.0416644 0.00543931 1.49402
-0.000653215 -0.0103461 2.11429
-0.106942 0.0134278 1.61713
0.0370692 -0.00443102 1.90231
0.041697 -0.00412724 1.91533
-0.664378 -0.541711 15.1864
-1.34782 -0.481533 17.5192
-0.216152 -0.0763433 4.69771
-1.30671 -1.05322 22.023
-1.66571 -1.07717 16.58
0.0474409 -0.336037 2.2823
-1.18873 -1.25958 18.9248
0.0414391 -0.000438277 1.48355
-0.318806 -0.00021041 2.35405
0.0151583 -0.322513 2.27243
0.114802 -0.33539 2.32462
0.0613126 -0.00445429 1.85756
-0.925157 -0.820304 4.47244
0.090356 -0.210473 1.84337
0.104988 -0.30093 2.25798
0.106147 -0.295912 2.2423
0.0953728 -0.211194 1.87979
0.0869832 -0.296213 2.2795
0.636352 -0.497019 3.23939
-0.0419651 -0.348271 2.66667
0.113723 -0.205007 1.94111
0.067357 -0.00771087 2.03246
-0.00673927 -0.339972 2.66554
-0.663451 -0.372922 2.93767
0.0959943 -0.195851 1.95431
0.121268 -0.284573 2.44848
-0.645025 -0.375694 2.97905
-0.55968 -0.345429 2.80959
0.0703326 -0.333515 2.73064
0.0947541 -0.193437 1.95389
-0.573023 -0.311349 2.6321
-0.655645 -0.380902 3.02192
-0.618822 -0.369331 2.95659
-0.560762 -0.345278 2.82118
0.097538 -0.194155 1.96434
1.34398 -0.750507 5.18941
1.71113 -0.911776 6.11426
0.0315545 -0.362873 3.004
0.0700302 -0.313479 2.72591
0.0713071 -0.309243 2.71335
0.104166 -0.165388 1.85611
1.80089 -0.895048 6.16523
0.00196942 -0.341773 2.92265
0.105658 -0.1616 1.85846
-0.000897762 -0.338173 3.00524
0.134078 -0.244316 2.4081
1.54591 -0.725424 5.42423
1.55987 -0.729099 5.4472
0.0755079 -0.299584 2.77316
1.18904 -0.689757 5.23954
1.25277 -0.686918 5.22005
1.10999 -0.839046 6.23577
1.12257 -0.789066 5.95377
-0.682175 -0.323275 3.00345
-0.587231 -0.328683 3.03706
0.0903762 -0.307799 2.88477
-0.618825 -0.321533 3.00689
0.111875 -0.164973 1.95035
-0.0375734 -0.344106 3.19864
0.106033 -0.148275 1.86041
-0.04844 -0.320573 3.07341
0.0889066 -0.158443 1.94587
0.799049 -0.371913 3.41095
0.083146 -0.30631 2.98867
0.0713605 -0.383624 3.5975
0.11888 -0.300602 2.9999
-0.608776 -0.295599 2.99773
-0.128945 -0.0251095 1.52015
-0.779826 -0.311829 3.19769
-0.00918224 -0.0123065 1.96899
0.0475002 -0.438288 4.22086
-0.0154113 -0.0131274 1.99818
0.45091 -0.244581 2.72857
-0.604879 -0.281789 3.08362
-0.585923 -0.39506 3.98641
-0.0413883 -0.41741 4.15215
0.148875 -0.305607 3.25628
0.0863723 -0.178414 2.24348
0.187773 -0.22737 2.63152
0.331254 -0.220846 2.59192
-0.607398 -0.277791 3.09292
0.3108 -0.221799 2.61617
0.193815 -0.224643 2.65869
-0.164162 -0.0125227 2.15265
-0.621344 -0.371728 3.97748
0.0870298 -0.169942 2.2494
0.190777 -0.317429 3.55165
-0.759101 -0.27355 3.21749
0.0912497 -0.465332 4.87749
0.060776 -0.475454 5.01062
-1.22566 -0.515946 5.49868
-0.758459 -0.376907 4.26459
-0.760441 -0.36587 4.23695
-0.73155 -0.371931 4.37141
-0.607231 -0.20394 2.79759
-0.00987898 -0.337925 4.13952
0.385448 -0.181696 2.59297
-0.75899 -0.578956 6.70058
-0.753117 -0.579966 6.71075
0.124582 -0.462745 5.49109
0.141833 -0.249003 3.3069
0.0145463 -0.0158185 2.11505
-0.761504 -0.568338 6.66414
0.139229 -0.222018 3.05731
-0.0230733 -0.0187824 2.81734
0.16482 -0.126888 2.08595
-0.0692153 -0.0212232 2.7123
0.234566 -0.130246 2.14902
-0.08321 -0.42509 5.39074
0.0825613 -0.306456 4.09163
0.232221 -0.126937 2.1284
-0.627935 -0.258236 3.65531
0.10816 -0.09749 1.83235
-0.737585 -0.512206 6.58596
-0.0970347 -0.021487 2.58429
-0.793476 -0.413788 5.53138
-0.901523 -0.400669 5.4465
-1.21639 -0.598837 7.87656
0.252526 -0.120636 2.15194
-0.664072 -0.214239 3.32337
0.109511 -0.093 1.83936
-1.5204 -1.70712 21.675
0.218926 -0.100562 1.94161
-0.623468 -0.220269 3.46864
-0.764998 -0.377268 5.42629
-1.79878 -2.06636 26.4745
-1.54821 -0.652742 8.99968
-1.37614 -1.03259 13.7967
-0.709035 -0.35507 5.4219
0.157075 -0.184585 3.135
-1.25273 -0.534812 7.93714
-1.44277 -0.47747 7.27388
-0.571534 -0.0206387 2.76022
-1.42185 -1.15761 17.1637
-0.76297 -1.14576 16.9761
0.228571 -0.13426 2.59604
-0.790094 -0.316896 5.34736
-2.64303 -2.11821 31.9544
0.109835 -0.0242968 1.93728
-0.943479 -1.29275 20.4529
-0.090017 -0.314254 5.53754
0.0728355 -0.134798 2.73233
0.203539 -0.103582 2.24125
0.0771016 -0.0242926 1.91026
0.254682 -0.103157 2.33594
-0.969724 -0.403171 7.59183
0.0999182 -0.191539 3.89779
0.186757 -0.158372 3.32145
0.0759912 -0.0242914 1.91035
-0.767305 -0.270021 5.47501
0.182188 -0.111789 2.61992
0.0350901 -0.024232 1.92992
-0.740706 -0.120847 3.05162
-0.881937 -0.228949 5.3176
-1.16039 -0.991993 21.2866
-0.810939 -0.257661 6.18525
-0.771924 -0.13899 3.71265
-0.863459 -0.193849 5.11706
0.09701 -0.0254308 1.93678
-0.0784677 0.00452858 1.589
-0.637674 -0.150094 4.24915
-0.0947375 -0.208429 6.04294
0.0702265 -0.0751862 2.43865
0.227251 -0.0787672 2.53338
-0.68127 -0.11835 3.89701
-0.852292 -0.168512 5.6091
0.0677709 -0.05549 1.98295
-0.843846 -0.350866 11.8188
-0.552082 -0.259717 8.79534
-0.627677 -0.0879725 3.21858
-0.666911 -0.185547 6.58115
-0.718231 -0.226159 7.98241
-0.00137501 -0.148962 5.28857
-0.682161 -0.118599 4.42221
-0.201673 -0.158295 5.82682
0.0584415 -0.0536105 2.04567
0.0730166 -0.0506787 1.93941
-0.5607 -0.0714531 2.88627
-0.623407 -0.289603 11.5196
-0.034087 -0.082284 3.28635
-0.101186 0.0163657 2.06348
-0.561986 -0.0690387 2.8825
0.0186181 -0.0519335 2.13809
-0.0897778 -0.110699 5.00486
-0.520355 -0.0628628 3.04239
-0.492596 -0.0944506 5.25807
-0.550248 -0.0843182 5.29538
-0.192431 -0.0761721 4.68347
-0.0783317 -0.0450131 2.44974
0.0356608 -0.0371198 1.87664
-0.0877234 -0.0042922 1.61993
0.0731769 -0.0364728 1.9063
0.0411181 -0.0471387 2.93272
-0.0295014 -0.0396516 2.64116
-0.47078 -0.0845736 5.30684
0.135212 -0.216313 1.83935
0.0737561 -0.211032 1.83595
0.0530386 -0.332749 2.27858
0.167271 -0.208351 1.82804
0.149196 -0.204592 1.81758
0.169337 -0.205297 1.8317
0.0656832 -0.202305 1.82792
0.0950232 -0.206729 1.86972
0.156104 -0.190163 1.81401
0.230445 -0.118716 1.95619
0.223693 -0.0983082 1.94563
-0.912795 -0.446753 16.799
0.118789 -0.00960562 1.83362
-0.117166 -0.00793789 1.8398
-0.0954747 -0.0062997 1.91906
0.0828409 -0.327219 2.27303
0.0618742 -0.331019 2.29741
-0.000671401 -0.436972 2.70359
0.0245269 -0.00803482 1.92007
0.0247695 -0.414322 2.6392
0.089039 -0.291773 2.17978
0.110472 -0.0104697 1.89531
0.119265 -0.310033 2.2855
0.101502 -0.0103567 1.8999
0.00213954 -0.406902 2.67494
0.0768684 -0.00881636 1.96012
0.102441 -0.304586 2.27505
0.40073 0.420888 3.88385
0.0632345 -0.00826417 1.98182
0.0845724 -0.295151 2.27586
0.112115 -0.294539 2.28434
-0.0277981 -0.387411 2.68751
0.00926889 -0.382184 2.66511
-0.039196 -0.383381 2.68652
0.120295 -0.277093 2.27426
0.0509762 -0.268439 2.24283
0.0967425 -0.201549 1.94593
0.122005 -0.190882 1.89836
-0.58538 -0.41485 2.92823
-0.0149033 -0.357575 2.67154
0.106885 -0.19825 1.94819
0.00739413 -0.354375 2.66516
0.00898049 -0.351 2.65818
-0.594727 -0.410535 2.95872
-0.584177 -0.405594 2.94586
-0.0394598 -0.342706 2.6545
-1.25787 -2.62321 13.5097
0.106843 -0.169736 1.85329
-0.64119 -0.395648 2.95152
-0.637929 -0.394998 2.94836
-0.637717 -0.392668 2.94771
-0.00432101 -0.332664 2.65002
-0.598374 -0.399833 2.99275
-0.0172289 -0.327618 2.65244
-0.625016 -0.382802 2.99819
0.149252 -0.252097 2.32088
0.0888651 -0.331648 2.73805
0.107372 -0.177644 1.94584
-0.646905 -0.372865 2.98202
-0.590716 -0.367133 2.97473
-0.64497 -0.362516 2.96272
0.0997516 -0.172955 1.94644
0.109892 -0.154507 1.84829
-0.533972 -0.370271 3.0147
0.118394 -0.171285 1.94753
-0.591665 -0.350728 2.93421
-0.563122 -0.363639 3.0288
1.18875 -0.870968 5.79598
-0.564058 -0.360443 3.02386
0.0316569 -0.355768 2.99078
0.0690768 -0.299126 2.68729
0.102332 -0.318879 2.79696
0.106418 -0.31519 2.77636
0.109645 -0.244093 2.3801
-0.587376 -0.355971 3.02479
1.47422 -0.822729 5.61933
0.097105 -0.164566 1.94776
1.52345 -0.808106 5.5676
-0.0136367 -0.314605 2.80855
-0.596521 -0.349019 3.02451
-0.502512 -0.341575 2.9807
0.10841 -0.281668 2.62992
1.56504 -0.798345 5.57434
1.43563 -0.888171 6.23638
-0.548759 -0.33804 3.02687
-0.499423 -0.331327 2.98636
-0.032221 -0.300682 2.79855
0.022218 -0.339235 3.04096
0.105049 -0.139863 1.84564
-0.550908 -0.334756 3.03481
0.0933967 -0.156075 1.94865
0.114386 -0.155831 1.94692
0.109019 -0.222011 2.3643
1.43508 -0.695364 5.24931
1.29181 -0.695952 5.28622
1.29981 -0.677318 5.17105
-0.606067 -0.316725 2.9807
1.14303 -0.68907 5.27725
1.20836 -0.679927 5.21957
0.0010389 -0.324891 3.03876
1.12669 -0.845158 6.28876
0.113906 -0.323343 3.04231
-0.603772 -0.336348 3.14854
-0.534703 -0.330855 3.12817
-0.60001 -0.309344 3.00536
-0.545897 -0.322027 3.08684
-0.621861 -0.414637 3.70786
0.0711444 -0.275216 2.78943
0.107214 -0.146663 1.94972
-0.636345 -0.307941 3.02644
-0.547184 -0.322282 3.11978
-0.0645714 -0.463471 4.04346
-0.0466561 -0.451465 3.96422
0.0100449 -0.444827 3.9892
0.125009 -0.29553 3.01113
-0.601911 -0.436544 4.01197
0.0571948 -0.300432 3.07816
0.0847628 -0.184256 2.26632
0.0752623 -0.258901 2.81642
-0.604916 -0.281192 2.99892
-0.624907 -0.418699 3.98552
0.21766 -0.365335 3.59292
0.435059 -0.23134 2.62921
-0.597252 -0.279596 3.00365
0.0563552 -0.288914 3.0635
0.409916 -0.218436 2.54925
-0.605487 -0.275903 2.99334
0.344707 -0.222948 2.60858
-0.653258 -0.404801 3.98652
-0.0718624 -0.414446 4.05155
0.0833724 -0.423934 4.12034
0.335149 -0.224548 2.63392
-0.719149 -0.400697 3.98273
-0.00571932 -0.419485 4.11558
0.188173 -0.222758 2.63586
0.25131 -0.213085 2.56248
0.207137 -0.220011 2.62862
0.367349 -0.217031 2.61784
-0.563342 -0.393565 4.03428
0.22361 -0.356121 3.73304
-0.015949 -0.410656 4.19073
-0.56875 -0.253461 2.97588
-1.01803 -0.477597 4.76495
-0.638365 -0.381947 3.99932
-0.0280397 -0.392092 4.10215
-0.00653067 -0.38733 4.06363
0.14873 -0.192741 2.49752
0.0949018 -0.164315 2.28067
-0.718277 -0.370611 3.99371
0.0359668 -0.254709 3.03425
0.249407 -0.149218 2.16634
-0.575636 -0.234848 2.89577
-0.604302 -0.371793 4.06105
0.173698 -0.290663 3.37268
0.108525 -0.120886 1.95132
0.074233 -0.206054 2.68081
-1.16754 -0.506417 5.28066
0.102608 -0.119482 1.95587
-0.0390911 -0.0116397 1.85359
-0.569577 -0.204679 2.74221
-1.13989 -0.454152 4.95382
-0.0760884 -0.361257 4.12076
0.24111 -0.153303 2.29129
-1.00834 -0.389801 4.45563
-1.14203 -0.443758 4.94487
-0.616328 -0.34128 4.01266
0.108233 -0.113982 1.94991
0.102583 -0.11268 1.95573
0.436314 -0.180573 2.57995
-1.06316 -0.367115 4.43429
-0.623504 -0.313047 3.9114
0.0698082 -0.221725 3.05119
-0.613564 -0.274887 3.60353
0.215755 -0.12671 2.13981
-0.677436 -0.545363 6.3225
-0.0202224 -0.295017 3.82713
0.0878396 -0.383357 4.70397
0.0476184 -0.219763 3.07844
-0.581401 -0.319599 4.11395
0.0966312 -0.174645 1.95034
-0.602776 -0.31555 4.1102
-0.753473 -0.555556 6.55812
-0.0589704 -0.379874 4.75993
0.139869 -0.237306 3.30463
0.176345 -0.185061 2.77173
0.0114813 -0.30736 4.05673
0.142744 -0.234854 3.30673
-0.740851 -0.553101 6.67277
0.0656638 -0.294977 3.96426
0.260148 -0.137437 2.31438
-0.591559 -0.212175 3.13067
0.0998021 -0.100693 1.94175
-0.0609112 -0.444218 5.64337
0.00280985 -0.66442 8.00779
0.245911 -0.116113 2.11603
0.246057 -0.11581 2.11277
0.160049 -0.220434 3.26544
0.0380417 -0.012391 1.9317
0.19823 -0.11492 2.14254
-0.669233 -0.395635 5.35175
-1.23971 -0.578697 7.61809
-1.1943 -0.592223 7.77564
0.228848 -0.110658 2.13467
-0.477338 -0.309071 4.50864
0.162966 -0.192901 3.12463
-0.471445 -0.301099 4.46264
0.249102 -0.106638 2.11486
-1.25585 -1.40628 18.025
-1.2651 -0.893178 11.9194
-1.08372 -0.935794 12.4464
0.0989992 -0.0898948 1.9377
-0.606013 -0.174623 3.02478
-0.769624 -0.366906 5.4501
-1.28539 -0.967134 13.0209
-0.12719 -0.404292 5.91477
-0.124376 -0.421192 6.12775
0.0956567 -0.115779 2.27593
-0.0296858 -0.335592 5.17378
0.0767895 -0.141181 2.66659
0.207867 -0.132827 2.55475
-0.22048 -0.323387 5.28392
0.0172314 -0.212001 3.73081
-0.492333 -0.272069 4.69428
-2.88042 -2.32401 34.3172
0.00883815 -0.244884 4.29727
0.113366 -0.0733038 1.84516
0.153708 -0.155228 3.10692
0.181673 -0.13275 2.79465
-0.706079 -0.169761 3.42187
-0.714429 -0.172171 3.46016
-0.0684402 -0.259918 4.84552
-0.708296 -0.178253 3.76046
-0.967679 -0.399903 7.58059
0.178069 -0.112422 2.61861
-0.702622 -0.248395 5.0518
-0.685554 -0.247546 5.03669
-0.916033 -0.387194 7.49709
-0.0101922 -0.252226 5.11309
-0.697249 -0.144405 3.26682
-1.68351 -0.990758 18.5104
0.223321 -0.0815922 2.12809
-0.82406 -0.337927 7.15441
-0.665938 -0.473803 9.77629
-0.123493 -0.333685 7.06663
0.168694 -0.118017 2.90054
-0.847394 -0.227572 5.11899
-0.634722 -0.448401 9.48609
0.136933 -0.236691 5.29123
-0.688643 -0.129108 3.27274
-1.02681 -0.299686 6.97664
-0.0303464 -0.175729 4.31961
0.0126502 -0.174465 4.29228
-0.974291 -0.311521 7.57027
-0.176236 -0.263147 6.47197
-0.725455 -0.14036 3.77662
-0.651203 -0.16179 4.3664
-0.872561 -0.248943 6.45384
-0.713463 -0.133537 3.76785
-0.692146 -0.132714 3.74737
-0.881219 -0.185998 5.18665
-0.0127588 -0.173731 4.86848
-0.894042 -0.259271 7.45102
-0.908888 -0.281338 8.29278
-0.0281704 -0.0112996 1.65882
-0.697864 -0.184894 5.73673
0.0732257 -0.0601297 2.0918
0.0444051 -0.0796961 2.71905
-0.856698 -0.170232 5.63423
-0.604795 -0.210622 7.13878
-0.857689 -0.361107 12.0714
-0.15869 -0.250282 8.43629
-0.657541 -0.0911341 3.31033
0.0197941 -0.144376 5.12671
-0.00226848 -0.0756835 2.77943
-0.866267 -0.177773 6.49886
-0.185157 -0.196557 7.16668
0.0251404 -0.0720807 2.72207
0.0733462 -0.0501447 1.93877
-0.700417 -0.155493 6.40131
0.0298228 -0.045811 1.87748
-0.630778 -0.473886 20.5258
-0.62666 -0.0776133 3.55665
-0.490159 -0.117382 5.49655
0.21647 -0.0522313 2.31799
-0.885453 -0.118943 5.85774
-0.00848172 -0.0610854 2.852
0.0414472 -0.0043579 1.89243
-0.698552 -0.086918 4.40281
-0.710764 -0.122485 6.37924
-0.0698782 -0.100135 5.13805
-0.561617 -0.0572289 2.87004
0.0264371 -0.0426215 1.99899
0.0749825 -0.0402107 1.90956
-0.562672 -0.0530715 2.87351
-0.476999 -0.0851027 5.12349
-0.427058 -0.0898629 5.45806
-0.197498 -0.0751833 4.4283
-0.16848 -0.0706836 4.11244
-0.130722 -0.0744334 4.37598
-0.743474 -0.0713632 4.44303
-0.0541923 -0.0705407 4.38449
-0.0673917 -0.0692013 4.61181
-0.0215304 -0.0558303 3.4728
0.0444992 -0.0364872 1.90187
0.116501 -0.0358737 1.8442
0.034915 -0.0046841 1.88314
-0.537521 -0.0424185 2.85972
-0.532493 -0.0494915 4.22228
-0.300681 -0.050222 4.33692
-0.611015 -0.0388302 3.49198
0.0318453 -0.0349991 3.22123
0.0235966 -0.0311369 1.92009
0.0334086 -0.0310995 1.90823
0.049158 -0.0301656 1.89615
-0.102342 -0.00755611 1.85137
-0.0523171 -0.0279991 2.41176
0.0335413 -0.0283767 1.90157
-0.00334793 -0.0261185 2.57251
0.00412266 -0.0247423 2.46111
-0.105168 -0.0224449 2.62223
-0.0806744 -0.0203686 2.66826
-0.0613251 -0.0208493 2.58418
-0.526617 -0.0184623 2.69786
-0.0968505 -0.0164171 2.22557
0.0155873 -0.0145398 2.37726
-0.190854 -0.0153323 2.21221
-0.169591 -0.015083 2.23023
-0.166781 -0.0139669 2.21688
-0.108641 -0.0144855 2.17942
0.0253739 -0.0147627 2.15611
-0.0903777 -0.014835 2.07793
-0.0474754 -0.0136575 2.08005
-0.0110728 -0.0135154 1.97154
0.0727324 -0.0274743 1.89659
0.120267 0.0486076 0.641386
0.0644379 0.0289447 0.507737
0.0678837 0.026875 0.529623
0.0697486 0.0235108 0.528554
0.0724176 0.0121452 0.523726
-0.533939 0.033061 1.59907
0.0722326 0.00811465 0.517661
0.0720724 0.0081705 0.521229
0.0682869 0.00654239 0.548999
0.0689984 -0.0134144 0.522874
-0.501011 0.0176035 1.47809
0.14188 -0.17056 0.794122
0.141901 -0.16959 0.794238
0.143084 -0.169804 0.795242
0.135145 -0.18397 0.866668
0.136787 -0.184711 0.870158
0.135636 -0.18246 0.86982
0.143205 -0.163967 0.795913
-0.510338 0.0159859 1.50002
0.144734 -0.160801 0.810096
0.139525 -0.155373 0.797852
-0.543465 0.0152481 1.62146
-0.511767 0.0140947 1.49866
0.0691396 0.00226405 0.514102
-0.563182 -0.262473 1.63112
0.0761126 -0.0186256 0.504393
0.0690657 -0.000992076 0.533594
0.146928 -0.0926549 0.694717
0.14651 -0.0920738 0.696904
0.153248 -0.0910222 0.695537
0.0693862 -0.0016519 0.530891
0.146599 -0.0903825 0.697323
0.0776406 -0.0285732 0.536991
0.148621 -0.0800436 0.698554
0.146874 -0.0774277 0.698633
0.0681126 -0.00427356 0.52623
0.142976 -0.0737025 0.68836
0.145048 -0.0708414 0.694114
0.147505 -0.0629441 0.693304
0.0721856 -0.00951231 0.563197
0.0749507 -0.00963186 0.496691
0.109911 -0.076421 2.0008
-0.0202856 -0.096405 3.58043
-0.390259 0.0909696 1.2854
0.0481028 -0.0286091 1.38483
0.0752445 0.029779 0.651217
-0.397621 -0.08798 4.53258
0.0517426 -0.038696 1.43738
-0.340452 -0.0799309 4.11794
-0.408583 -0.100536 5.17929
-0.75197 -0.13642 4.63579
0.0724478 -0.0170983 0.607113
-0.606486 -0.0575739 1.95691
0.0738653 -0.0239042 0.606166
0.0644584 0.0147016 0.634082
0.063828 0.0149284 0.643876
-0.71147 -0.053868 2.09901
0.0672169 0.0100658 0.594735
-0.431283 0.0460368 2.72237
0.0664062 0.00837932 0.581069
0.0540282 0.0148547 1.03082
-0.541044 0.0236222 1.63894
0.0699215 -0.0117375 0.60515
-0.50305 0.0206069 1.56576
-1.21604 -0.408854 15.9245
0.0668529 0.0069703 0.584977
0.069621 0.00750673 0.630089
0.0650198 0.00709243 0.595244
0.075115 -0.273641 1.17792
0.0750871 -0.272064 1.17748
0.180798 -0.282462 1.22913
0.125499 -0.282191 1.23469
0.110723 -0.271181 1.19305
0.0685914 0.00619461 0.580936
0.0680631 -0.262016 1.15912
0.110539 -0.272951 1.20749
0.115548 -0.267406 1.19622
0.0956065 -0.255512 1.15596
0.112859 -0.268796 1.21606
-0.556345 0.0181662 1.70485
0.134705 -0.178323 0.870898
0.0693365 0.00524643 0.557438
0.0643247 0.00535639 0.569141
0.0651321 0.00574356 0.610384
0.144559 -0.160729 0.814874
0.129719 -0.167098 0.852581
0.138141 -0.170859 0.871767
0.137996 -0.152682 0.789107
0.137274 -0.151998 0.79069
0.153385 -0.173788 0.909967
-0.491878 0.0146857 1.56167
-0.499666 0.0147995 1.57378
0.101607 -0.232009 1.24755
0.145192 -0.148022 0.801333
0.144802 -0.147653 0.80479
0.0684674 0.00473091 0.579886
0.0642636 0.00479961 0.58832
0.163886 -0.230482 1.29151
-0.419941 -0.0885803 5.23942
0.104007 -0.0235901 1.07668
0.13799 -0.219138 1.26342
-0.424098 -0.0908891 5.37596
-0.610684 0.0100973 1.78834
0.144859 -0.134538 0.810791
0.1451 -0.132883 0.800822
0.14997 -0.130956 0.789207
0.145162 -0.131937 0.801167
-0.627294 0.00813093 1.85067
0.117474 -0.183522 1.21614
-0.626187 -0.11685 3.27424
-0.551405 -0.246712 1.67672
0.148616 -0.114865 0.787311
0.0710293 -0.012506 0.571053
-0.542138 -0.241215 1.66775
-0.0248004 -0.208062 5.6316
0.146898 -0.109399 0.805135
0.151686 -0.104766 0.792964
0.154342 -0.10289 0.801558
0.154701 -0.0994585 0.798191
0.143574 -0.0984294 0.797955
0.148089 -0.0977506 0.80058
0.156738 -0.0950279 0.77828
-0.538933 -0.00980747 2.24105
0.147189 -0.0958177 0.801185
0.154628 -0.0954146 0.797813
0.0325604 -0.320923 2.71174
0.155422 -0.094286 0.79672
0.155273 -0.0902083 0.795956
0.155189 -0.0887409 0.800705
0.155828 -0.0875295 0.798801
0.135508 -0.0660556 1.21262
0.115805 -0.209142 1.93066
0.148213 -0.0867943 0.801251
0.166194 -0.0862442 0.815015
0.0472499 -0.0111469 1.18759
0.0463117 -0.0127893 1.20216
0.10261 -0.185972 1.86794
-0.565277 -0.185332 1.88538
0.0387904 -0.0151961 1.42818
-0.562537 -0.182084 1.87624
0.0418844 -0.373459 3.89814
0.134631 -0.11674 1.21856
0.0705537 -0.0081596 0.567228
0.0706606 -0.00734664 0.618303
0.13537 -0.114311 1.22524
0.0166173 -0.0240389 2.02094
-0.395404 -0.0973375 4.71069
-0.25361 0.278675 1.4402
-0.666965 -0.206473 8.45459
-0.426279 -0.162674 5.77315
-0.525929 -0.0239579 1.82324
-0.772893 -0.176491 4.62092
0.0646023 0.0253964 0.643489
0.0636944 0.0234505 0.634444
0.0635556 0.0226066 0.633062
-0.0188703 0.0284188 0.965257
-0.578033 -0.251933 8.56015
-1.01268 -1.32216 4.87656
-0.818883 -0.215181 7.0133
0.111539 -0.0373565 1.16995
0.0539744 0.0182422 0.939281
-0.48579 0.0285976 1.57388
-0.621639 -0.0873351 2.08214
-0.704482 -0.0488615 2.10982
0.06484 0.00908399 0.630012
0.119637 -0.0422007 1.27175
-0.569377 -0.0523217 2.88206
-0.618918 -0.207393 3.27952
0.135455 -0.112848 1.22601
0.641697 -0.66357 7.20877
0.0644445 0.00667599 0.626169
0.0905161 -0.216296 2.34986
0.166206 -0.089316 0.957338
0.0947442 -0.268147 1.22004
0.170706 -0.269826 1.2347
0.0986343 -0.263141 1.21106
0.133132 -0.264861 1.23319
0.11611 -0.258538 1.21796
0.0898679 -0.247912 1.19613
0.10427 -0.241797 1.18816
0.082316 -0.236086 1.17456
0.103151 -0.239707 1.19257
0.106582 -0.242596 1.21451
0.0716281 -0.251414 1.27464
0.131462 -0.229454 1.1633
0.0798275 -0.231586 1.18162
0.163005 -0.0894221 0.945781
0.0648861 -0.222626 1.18119
-0.480814 0.01275 1.56416
-0.499066 0.0130726 1.60377
-0.491374 0.0109381 1.58548
0.0663421 0.00359888 0.636797
0.107825 -0.0241409 1.10181
0.134258 -0.215704 1.24362
-0.429412 0.00952922 1.68813
-0.512661 0.0102567 1.81701
0.101697 -0.205458 1.19317
0.140631 -0.219186 1.27288
-0.485902 0.00899923 1.5938
0.576112 -0.586376 5.96445
0.119815 -0.197032 1.22438
-0.598559 0.00834797 1.90038
-0.565749 -0.187063 1.90298
-0.666477 -0.153821 4.30999
0.0880317 -0.0160281 0.948484
-0.642372 0.00620575 1.97611
-0.634218 -0.301369 2.21805
-0.554769 -0.051317 1.90654
-0.655329 -0.30014 2.27183
0.076336 -0.0382692 1.35834
0.00873519 -0.357205 2.75586
0.123486 -0.12247 1.21485
0.127428 -0.0635698 1.22324
-0.496049 -0.00974389 2.22635
0.0733657 -0.308748 2.58155
-0.633852 -0.320519 2.79726
-0.708574 -0.0543078 2.62903
-0.600923 -0.180257 7.38119
-0.677337 -0.0521575 2.52496
0.123364 -0.125389 1.21365
0.108203 -0.153458 1.84269
0.0958852 -0.206226 1.97214
-0.580332 -0.157992 2.90044
-0.484304 -0.239487 2.31809
-0.622871 -0.365427 3.53706
-0.794095 -0.31296 5.74501
-0.134078 -0.0570151 2.75943
0.0574266 -0.465196 5.3447
-0.899199 -0.210093 5.50063
-0.511824 -0.0144902 1.78215
-0.518374 -0.0151425 1.86226
-0.172023 -0.0783146 3.20706
0.0944965 -0.0294083 1.09246
-0.716006 -0.179714 4.5559
-0.871219 -0.207031 5.2484
-0.198725 0.0179367 0.986964
-1.08294 -0.129531 3.18309
-0.556675 -0.165302 1.87246
0.0517947 -0.0405369 1.43883
0.0550927 0.0145301 1.10434
-0.558662 -0.168963 1.88715
-0.55287 -0.166501 1.85966
-0.558731 -0.166849 1.86355
-0.825759 -0.639293 7.56274
1.50617 -1.03734 4.39413
-0.347533 -0.891687 3.79747
0.0423201 -0.020525 1.42561
0.0617029 -0.0233321 1.0074
0.050452 -0.00915184 1.12524
0.161738 -0.0895191 0.959516
-0.492424 -0.142554 3.03571
0.0720176 -0.0108477 0.912472
-0.507208 -0.0119892 1.74309
-0.623299 -0.204802 3.11518
0.0839118 -0.196567 1.92591
0.0714105 -0.243585 1.24285
-0.500097 0.0163724 1.74132
0.0802012 -0.231184 1.18715
-0.513516 0.016241 1.7273
0.0964947 -0.238864 1.24257
0.12467 -0.23578 1.22652
0.0946791 -0.235138 1.23934
0.110158 -0.228305 1.20332
-0.570536 -0.177663 1.87918
0.153553 -0.233528 1.24731
0.102942 -0.229911 1.24465
0.155786 -0.231382 1.25261
-0.520262 -0.0190985 1.79574
0.049513 -0.22834 1.24459
0.0523851 -0.208499 1.13645
0.0494526 0.00924662 1.1349
0.0887685 -0.222771 1.22258
0.137322 -0.223922 1.22889
0.137235 -0.222242 1.22811
-0.565359 -0.179879 1.87775
-0.514928 0.0119474 1.73205
0.0782753 -0.0204207 0.932121
0.0570969 -0.212136 1.20565
0.0587349 -0.212555 1.20803
0.185282 -0.0992481 1.02261
0.0536857 -0.209196 1.19746
0.0571322 -0.210756 1.20639
-0.513038 -0.0189989 1.78637
-0.510011 0.00989462 1.75272
-0.51728 0.00978146 1.7326
0.0385667 -0.211481 1.24628
0.040219 0.00594575 1.3548
0.109847 -0.0242804 1.10817
-0.523447 0.00763784 1.73855
0.121232 -0.19376 1.22308
-0.540033 0.00558651 1.77873
-0.551222 0.00567845 1.80806
-0.589144 0.00596969 1.90096
0.0422847 0.00257381 1.36629
-0.654451 -0.348891 2.3511
-0.757025 -0.0584411 2.3939
0.0807701 -0.190071 1.90911
-0.615636 -0.324301 2.24216
0.0456016 -0.000758592 1.22383
0.0420704 -0.000843996 1.35936
-0.639882 -0.316669 2.24779
0.214399 -0.093566 1.23495
-0.634175 -0.311055 2.22774
-0.910208 -0.477124 6.29744
-0.489163 -0.00106405 1.726
-0.496964 -0.00107148 1.73805
-0.556634 -0.356303 2.69689
0.0441864 -0.00397513 1.27205
-0.505871 -0.00986619 1.75371
0.0943532 -0.235697 1.89153
-0.486828 -0.00536137 1.71776
-0.472465 -0.0073563 1.68207
0.132693 -0.224076 1.8934
-0.568686 -0.338491 3.27634
-0.497504 -0.0142729 1.75544
-0.727003 -0.220971 3.87819
-0.541663 -0.161778 1.88603
0.0429545 -0.0298937 1.44699
0.197374 -0.127752 1.46779
-0.616969 -0.170751 3.06421
-0.507624 0.117466 2.5695
-0.454786 0.104358 2.34703
-0.505412 -0.0350692 1.80749
-0.649982 -0.0820966 2.14981
-0.509753 -0.0146902 1.8067
0.178667 -0.100346 1.13658
-0.24009 0.0388567 1.17039
-0.374429 0.0458374 1.55698
0.180058 -0.103624 1.17371
-0.454715 -0.235883 2.20309
-0.545052 -0.0560832 1.90622
0.0498358 -0.0107345 1.1437
0.0724488 -0.0332122 1.23373
0.00181489 -0.0860905 2.80592
0.072067 -0.632979 7.60041
-0.540523 -0.166885 1.89038
-0.869767 -0.200383 6.5311
-0.54931 0.0400682 1.93824
-0.541887 -0.16657 1.88681
0.0687907 -0.0177635 0.915523
0.0702611 -0.0178435 0.919641
0.209662 -0.146566 1.22549
0.0620538 0.0158328 0.93594
-0.109088 0.0173035 1.02274
0.0772859 -0.0181299 0.934387
0.185484 -0.103167 1.15218
-0.244408 0.0195812 1.35868
-0.456973 0.0258887 1.79649
0.0668369 -0.0120953 0.920451
0.0845693 -0.0186975 0.963612
0.0508221 0.0145052 1.10244
-0.509633 -0.0324924 1.79025
-0.51045 -0.0334349 1.84214
-0.478899 -0.00759364 1.73619
-0.473458 -0.00757677 1.73232
-0.454212 -0.236297 2.34403
0.181091 -0.102132 1.12489
0.108777 -0.0860535 1.93567
-0.531141 -0.171673 1.89096
-0.642568 -0.13903 4.18959
0.014022 -0.407165 4.42342
0.0744509 0.00973893 0.914054
0.0737808 0.00980316 0.92009
0.0753467 -0.0170548 0.939626
0.0457164 0.0122397 1.14903
-0.368034 0.0168356 1.58016
0.180103 -0.102618 1.21396
0.199362 -0.121192 1.45524
-0.586969 -0.127863 1.98278
0.0770462 -0.0171693 0.945928
0.0923897 -0.0173601 0.956411
0.152717 -0.134722 1.21557
-0.503118 -0.030131 1.78319
-0.48695 -0.0119245 1.73364
-0.504183 0.016801 1.78697
-0.45917 -0.0117184 1.70365
-0.881434 -0.405043 6.04557
-0.475901 -0.00531203 1.70195
-0.478602 -0.0053666 1.71937
-0.460356 -0.0368323 1.78323
0.179592 -0.110336 1.15171
-0.509116 -0.279648 2.22202
-0.548595 -0.181391 1.89352
-0.476945 -0.00676424 2.16514
0.158822 -0.232692 1.27701
-0.460755 0.0149834 1.83873
-0.503583 0.0146111 1.79286
0.0422763 -0.226992 1.26311
0.175179 -0.109333 1.35356
-0.385789 0.00940043 1.66542
-0.341002 0.00817742 1.44839
0.202128 -0.121417 1.50314
0.513341 -0.557663 5.53147
0.168206 -0.141768 1.25087
-0.647559 -0.145397 4.22212
-0.528147 -0.181662 1.87189
0.0913203 -0.217201 1.27998
-0.224279 0.00705946 1.60789
-0.417292 0.00766111 1.74438
-0.458905 0.00837957 1.90826
0.128622 -0.198525 1.20551
-0.472611 0.00759594 1.72923
-0.495364 0.00774692 1.7636
0.129346 -0.198124 1.21229
0.215052 -0.199445 1.22978
0.096931 -0.197649 1.22821
0.22514 -0.20265 1.26914
0.0375422 0.00454543 1.44959
0.0366556 -0.186164 1.18451
0.129437 -0.19295 1.22767
-0.818029 -0.175876 4.92797
0.131429 -0.159662 1.23181
-0.481783 0.00323875 1.71525
0.50628 -0.55065 5.53062
0.0825126 0.000588692 0.926836
0.131474 -0.161259 1.23223
-0.466325 -0.0032188 1.72213
0.0453104 -0.000809409 1.30441
-0.65808 -0.315495 2.32202
-0.654651 -0.315255 2.32025
-0.658808 -0.312933 2.32458
0.00265958 -0.31738 4.12078
0.0730038 -0.00170168 0.910402
-0.110963 0.160936 1.93235
-0.563601 -0.231451 4.15332
-0.455022 -0.0230485 1.75399
0.211734 -0.178469 1.32565
-2.77084 0.385248 10.4274
0.0574673 -0.00171807 0.919282
0.144353 -0.198544 1.26326
-0.471732 -0.0164233 1.75026
0.166036 -0.210739 1.83909
-0.0924545 -0.105402 5.42959
-0.699509 -0.171882 3.38916
-0.456124 -0.0010905 1.76684
-0.487135 -0.0168024 1.79064
-2.66601 0.262113 12.6844
0.0961126 -0.157455 1.12763
0.0599941 0.0159133 0.9407
-0.635899 -0.307805 2.20447
0.0939661 -0.116111 2.28931
0.122242 -0.17309 1.21775
-0.257113 -0.232522 9.05639
-0.285017 -0.25882 9.61183
-0.54545 -0.315746 2.22147
0.0603454 -0.000561093 0.910174
0.124017 -0.147988 3.32864
-0.0183065 -0.0748615 3.23122
0.128294 -0.156415 3.33057
0.0623485 -0.0167493 0.922821
-0.386928 0.0198485 1.86328
0.180832 -0.197884 1.34478
0.07096 -0.0899823 2.6128
-0.520442 -0.330585 2.24669
0.0749323 0.00864966 0.919966
-0.470288 0.0165604 1.76141
0.181395 -0.20019 1.34897
-0.49469 -0.0375586 1.81841
-0.0389682 -0.307571 3.25296
-0.634924 -0.234823 2.48372
-0.450517 -0.0121232 1.76235
-0.556153 -0.295924 2.37497
-0.474929 -0.0374489 1.81308
-0.454485 -0.00531331 1.70222
0.21144 -0.199774 1.32382
0.203866 -0.194152 1.28656
0.129844 -0.185845 1.23153
0.201627 -0.145087 1.25247
0.15438 -0.136358 1.21658
-0.00838517 -0.402595 2.66785
-0.558627 -0.295256 2.32291
0.207063 -0.144643 1.27623
0.20545 -0.144642 1.27622
-0.486649 -0.0192948 1.81411
0.212626 -0.177917 1.38602
0.212018 -0.200475 1.30677
0.211158 -0.202819 1.32205
-0.68591 -0.360042 2.34702
0.127712 -0.189616 1.22599
0.0502653 -0.216527 1.30491
-0.117831 -0.073438 4.34362
0.17264 -0.214248 1.32107
0.10061 -0.192602 1.2353
0.0930024 -0.194381 1.21738
0.071683 0.00294612 0.938249
-0.630788 -0.394791 2.49214
0.0211028 -0.00614242 1.96346
0.1429 -0.200325 1.26451
0.196552 -0.113651 1.32484
0.121908 -0.161971 1.21443
-0.515342 0.00668967 2.13176
-0.392501 -0.0137318 2.43869
0.147609 -0.20768 1.81239
-0.178426 0.00474436 1.51177
0.21158 -0.185678 1.3792
0.120343 -0.163448 1.2141
-0.825727 -0.18999 4.97435
0.188403 -0.108796 1.32635
-0.420522 0.0639071 2.00074
-0.46096 -0.0149587 1.83955
-0.526375 0.00679721 2.16608
0.0273203 -0.00587957 1.87959
0.131428 -0.170459 1.2318
-0.0636981 -0.0784315 4.04041
-0.594098 -0.255684 2.89613
0.120378 -0.168059 1.21446
-0.187786 0.0376798 1.62587
-0.594702 -0.363581 2.25941
0.0600227 -0.0212009 1.09258
0.0234664 -0.00331544 1.76798
-0.665628 -0.398033 3.67449
0.104374 -0.147343 1.94473
-0.616858 -0.375787 2.29947
0.131461 -0.176674 1.23211
0.19667 -0.111587 1.36037
-0.588895 -0.092226 2.13497
-0.485188 -0.0525207 2.26754
-0.455717 0.00806808 1.83713
0.205724 -0.148168 1.35216
0.132156 -0.134138 1.22413
-0.0680855 -0.119142 5.14217
0.0304058 -0.199746 4.36972
-0.0138415 -0.0728323 3.14365
0.069294 -0.249666 2.67598
0.184016 -0.106934 1.28405
0.211781 -0.114807 1.35815
-0.578363 -0.301399 2.44347
-0.531753 0.00421315 2.23465
-0.514142 0.00413958 2.19559
0.0471417 0.00537153 1.22369
-0.933556 -0.425312 6.34809
-0.513345 0.00417796 2.21608
-0.466716 -0.0199111 1.87195
0.134657 -0.158258 1.23289
0.0416773 -0.0156023 1.46632
0.0472929 0.00846357 1.22762
-0.458365 0.0102725 1.82002
-0.554012 -0.00924024 2.95538
0.0397505 0.00275607 1.46352
0.0116419 -0.297671 2.62645
0.13309 -0.159788 1.23278
0.212055 -0.15289 1.34899
-0.649125 -0.169466 4.92093
0.125459 -0.124428 1.21913
0.0124502 -0.223741 3.92653
-1.07414 -0.631663 7.70071
-0.202201 0.00329927 1.75067
-0.537955 -0.354445 2.10438
0.0166388 -0.0859588 2.92082
-0.531671 -0.113484 2.13247
0.208487 -0.155321 1.46775
0.228847 -0.116816 1.51672
-0.622151 -0.269016 2.29759
-0.616444 -0.190366 6.46847
-0.923735 -0.204131 6.93635
0.0743686 -0.043532 1.41897
0.0722683 -0.0433466 1.41294
0.0541647 0.00788534 1.14363
0.0506659 -0.0195766 1.35977
-0.525393 -0.00142092 2.29308
-0.232808 -0.157093 4.91916
-0.592211 -0.366635 2.2608
-0.480793 -0.0360113 2.30131
-1.06463 -0.669423 7.91921
0.123981 -0.135182 1.21973
-0.501283 -0.0226499 2.12919
0.130677 -0.135739 1.22475
-0.573205 -0.29841 2.37109
0.0803269 -0.120309 2.70614
0.123876 -0.133541 1.21869
0.0799461 -0.123112 2.69331
-0.566134 -0.250072 2.28225
0.0301752 -0.0346814 1.91014
-0.50698 -0.0168163 2.98602
0.00272215 -0.245475 4.21528
-0.699447 -0.182342 3.78214
-0.722095 -0.30817 6.39166
-0.0208953 -0.343367 2.55054
-0.642406 -0.292559 3.62204
-0.0775549 -0.350173 3.96618
-0.530858 -0.25325 2.14004
-0.417464 0.0579052 2.37066
-0.565501 -0.344005 2.27969
0.147719 -0.203292 1.81374
-0.699677 -0.13118 3.80939
-0.706537 -0.347131 10.8696
-0.480211 -0.0335342 2.14312
0.00709127 -0.0153916 2.23517
-0.48963 -0.225876 2.35784
-0.836254 -0.394883 5.78578
-0.581023 -0.113539 2.29555
-0.570494 -0.253287 2.31159
-0.501557 -0.0520813 2.86875
