# .PCD v.6 - Point Cloud Data file format
FIELDS x y z
SIZE 4 4 4
TYPE F F F
COUNT 1 1 1
WIDTH 1723
HEIGHT 1
#VIEWPOINT 0 0 0 1 0 0 0
POINTS 1723
DATA ascii
-0.644701 -0.378122 11.1846
-0.781109 -0.307779 11.0427
-0.59343 -0.632956 12.188
-0.133326 -0.508446 11.0367
-0.0241418 -0.424514 10.2357
-0.507407 -0.373712 13.3836
-0.262499 -0.475218 10.7559
-0.157714 -0.445154 10.4579
-0.87662 -0.352543 10.5413
-0.786294 -0.863993 14.7549
-0.320206 -0.515477 11.1964
-0.0144111 -0.392717 9.9535
0.0756309 -0.354805 10.6998
-0.705099 -0.779258 13.962
-0.320935 -0.513066 11.2076
-0.264604 -0.473509 10.7982
-0.824828 -0.900324 15.3139
-0.275932 -0.480133 10.8988
-0.190097 -0.484211 10.9486
-0.636923 -0.593799 16.0218
-0.831777 -0.387378 11.2841
-0.17124 -0.495839 11.1091
0.076202 -0.380716 9.90799
-0.0645879 -0.41033 10.2442
-0.0469297 -0.288721 10.0489
-0.359351 -0.254852 9.44103
-0.63047 -0.484358 11.1324
0.0856792 -0.415155 10.3893
-0.723318 -0.491803 11.2523
-0.715756 -0.490218 11.2343
-0.370167 -0.304321 10.8329
0.0839757 -0.406002 10.3094
0.0258024 -0.352408 10.5763
-0.64902 -0.470827 11.0499
-0.635646 -0.605693 12.6687
-0.305481 -0.465125 11.0117
-0.1722 -0.485497 11.2677
-0.0713816 -0.40698 10.3348
-0.0711991 -0.403495 10.293
-0.0251394 -0.393304 10.2004
-0.728342 -0.478926 11.2245
-0.316898 -0.468997 11.1388
-0.197819 -0.475638 11.232
-0.947833 -0.881145 16.3213
-0.409099 -0.302704 10.7175
-0.615714 -0.462065 11.109
-0.0361887 -0.449382 12.7091
0.0258582 -0.324134 9.91292
-0.986138 -0.402415 11.4271
0.048896 -0.42508 11.8048
0.0912245 -0.351855 9.8023
0.0973456 -0.34998 9.77796
0.119229 -0.353186 9.82274
-0.114344 -0.39976 10.452
0.00713333 -0.338593 9.63579
0.0967615 -0.337978 9.63645
-0.457514 -0.307241 10.7912
-0.650667 -0.448857 11.1087
-0.834404 -0.35883 10.4636
-0.776857 -0.452765 11.1977
-0.643128 -0.442735 11.0707
-0.767232 -0.32336 11.1691
0.094715 -0.345023 9.77364
-0.773595 -0.449356 11.1991
0.118252 -0.346952 9.82603
-0.827362 -0.313322 10.9675
-0.672704 -0.439277 11.1136
-0.089938 -0.437608 11.1526
-0.0928045 -0.310634 10.9628
-0.77268 -0.325897 11.4753
-0.710565 -0.688624 15.2843
-0.787852 -1.05627 21.1157
-0.123537 -0.727974 15.9792
-0.825831 -1.13436 22.655
-0.584563 -0.992327 20.378
-0.336724 -1.16755 23.2533
-0.678029 -0.373932 10.3633
-1.26273 -1.26061 25.0136
-0.873652 -0.707663 17.2414
-0.483553 -0.387942 11.0575
-0.777045 -0.681018 15.6076
-1.4966 -1.49544 29.352
-0.397449 -0.670336 15.4746
-0.0820401 -0.422769 11.309
0.00528187 -0.37094 10.4396
-0.861718 -0.523908 13.6182
-0.793939 -0.97494 20.8821
-0.559367 -0.752533 17.0448
-0.0917604 -0.31991 11.2577
-0.409726 -0.334978 11.8642
0.0915728 -0.326157 9.79731
0.067 -0.365218 10.5746
-0.61518 -0.389084 10.9954
0.0209654 -0.412236 9.31746
0.0201836 -0.320472 9.31568
-0.398648 -0.251025 9.44769
0.0174876 -0.369661 9.32032
0.0186648 -0.361891 9.31804
0.0923387 -0.389129 9.53474
0.0179869 -0.343366 9.31852
0.0195266 -0.343146 9.31708
0.0200553 -0.342025 9.31852
-0.399889 -0.250646 9.4578
-0.107403 -0.569181 11.461
-0.363658 -0.255149 9.44148
-0.000635864 -0.260843 9.27697
0.195945 -0.655663 10.1203
0.0823489 -0.675839 10.1926
0.0978065 -0.672743 10.1823
0.106084 -0.676493 10.1951
0.0677156 -0.673719 10.1978
-0.214978 -0.250504 9.20379
0.105817 -0.607313 10.0224
0.0937079 -0.603245 10.0135
0.0642864 -0.657825 10.3318
0.0896341 -0.548542 9.93097
0.0567049 -0.529429 9.87142
0.0639389 -0.637626 10.3163
0.0138711 -0.531374 9.90813
-9.20312e-05 -0.510807 9.90788
-0.745507 -0.492844 11.0453
-0.800334 -0.667287 19.9258
0.0948209 -0.391589 9.57375
-0.595712 -0.51191 10.3193
-0.560344 -0.492072 10.2317
-0.598915 -0.494012 10.281
-0.614374 -0.484921 10.2587
-0.60211 -0.481928 10.2388
-0.173561 -0.328349 11.7689
-0.04568 -0.274948 9.94125
0.0393196 -0.398692 9.70406
-0.488302 -0.490161 10.3268
0.0408164 -0.396138 9.69466
-0.00966458 -0.270397 9.80053
-0.457583 -0.479803 10.2697
-0.734558 -0.491964 10.3886
-0.476594 -0.468421 10.3012
-1.84838 -1.39974 17.3924
0.0507251 -0.387062 9.71577
-0.59235 -0.452139 10.2011
-0.936647 -0.968039 14.237
-0.905757 -1.06637 15.1422
0.00873673 -0.632906 11.7179
0.0104164 -0.425991 10.0773
0.00153401 -0.41084 9.96699
0.0916092 -0.432686 10.1497
0.093912 -0.432944 10.1519
-0.328315 -0.272223 9.99585
-0.56862 -0.413857 10.0043
-0.633597 -0.439204 10.2316
0.0119707 -0.452393 10.4128
0.0939924 -0.383612 9.8145
-0.814545 -0.865472 14.0513
-0.0332681 -0.273253 9.85286
-0.308706 -0.524992 11.1142
-0.301641 -0.523867 11.1043
-0.012694 -0.398499 9.9951
-0.0714084 -0.437495 10.3699
-0.808846 -0.818774 13.9462
0.00412401 -0.424212 10.2685
-0.316577 -0.513423 11.1831
-0.102139 -0.423491 10.313
-0.837978 -0.889539 14.9251
-0.333136 -0.501317 11.0936
-0.350833 -0.255399 9.43073
-0.300378 -0.525919 11.3746
-0.723399 -0.481213 10.9277
-0.613205 -0.474999 10.8708
-0.30592 -0.562581 11.7844
-0.190708 -0.508133 11.2348
-0.171711 -0.466877 10.8142
-0.0231128 -0.411977 10.2619
0.0811961 -0.389146 10.0348
0.0561357 -0.372926 9.86751
-0.11961 -0.521983 11.4166
-0.318369 -0.486141 11.0645
0.0629776 -0.354221 9.70096
-0.0730989 -0.431111 10.5503
-0.0720185 -0.428759 10.5249
0.0595776 -0.356734 9.75363
-0.604922 -0.41361 10.3491
-0.149926 -0.492042 11.2404
0.0849189 -0.406276 10.3134
-0.662543 -0.473575 11.0371
-0.61952 -0.479117 11.1018
0.0224678 -0.27363 9.5974
-0.291183 -0.474453 11.1416
0.100039 -0.341284 9.63654
-0.905212 -0.880922 15.8858
-0.777159 -0.476222 11.2028
-0.713026 -0.472069 11.1581
-0.313507 -0.467525 11.1325
-0.30786 -0.473141 11.1996
-0.15938 -0.560539 12.248
-0.0674965 -0.414616 10.5216
0.09823 -0.338636 9.63105
-0.102846 -0.276799 9.93115
-0.643521 -0.464409 11.1088
-0.139166 -0.478045 11.3098
0.0887942 -0.396099 10.3372
-0.104646 -0.276911 9.95676
0.0982809 -0.355563 9.84854
0.0933133 -0.35176 9.80227
-0.726873 -0.467168 11.1745
-0.219744 -0.245562 9.13234
-0.547867 -0.464458 11.2769
-0.654309 -0.449372 11.1137
-1.16838 -0.991878 18.3788
0.0984251 -0.451187 11.3319
0.070697 -0.389054 10.4659
-0.657754 -0.437073 11.1598
-0.108617 -0.441494 11.272
-0.0777527 -0.44792 11.3676
-0.054066 -0.355485 10.0344
0.0595171 -0.389069 10.5991
-0.813698 -0.393383 10.6581
-0.740459 -0.693221 15.3666
0.00705025 -0.42273 11.1974
-0.937614 -1.26842 24.7056
-0.189873 -0.62112 14.4082
-0.0580909 -1.2876 25.0996
0.0929698 -0.331534 9.79637
-0.792041 -0.733167 16.307
-1.28958 -1.30317 25.593
-0.0415927 -0.437277 11.5363
-0.766947 -0.684466 15.6641
-0.379914 -0.648501 15.1017
0.00974263 -0.367818 10.4397
0.00498948 -0.336802 9.91959
-0.224498 -0.264484 9.63237
-0.709042 -0.591287 14.2322
-0.585089 -0.264409 10.0023
-0.267963 -0.853337 18.7716
-0.106302 -0.390971 10.8619
-0.0593186 -0.688225 16.5002
0.101466 -0.324203 9.80773
0.0963439 -0.31456 9.62937
-0.779118 -0.497244 13.0013
-0.0380864 -0.537523 13.8504
0.0514126 -0.439567 12.0086
0.0829435 -0.335563 10.0455
0.0916024 -0.322075 9.79149
-0.875852 -0.713446 17.2961
-0.00158431 -0.27037 9.78325
-1.03631 -0.411233 11.4805
-0.720663 -0.395323 11.2027
-0.656814 -0.388039 11.0654
-0.0503355 -0.330133 9.98663
-0.961842 -0.400882 11.3516
-0.967493 -0.402338 11.3807
-0.967125 -0.398281 11.3682
-0.0514304 -0.327275 9.99254
0.0551818 -0.36316 10.7632
0.0844568 -0.328897 10.0447
0.0942919 -0.315051 9.78144
-0.666713 -0.384882 11.2649
-0.767136 -0.686807 18.0035
-0.0638928 -0.404892 11.7975
0.0967431 -0.307004 9.6308
0.0254219 -0.318239 9.90471
-0.775522 -0.409096 11.9827
-0.748918 -0.410987 12.0317
-0.840698 -0.372533 11.1779
-0.927658 -0.62315 17.3332
-0.0669471 -0.345444 10.6319
-0.0612758 -0.317986 9.95693
0.0912586 -0.310259 9.79056
-0.777868 -0.374183 11.3113
-0.159322 -0.4786 14.0706
-0.788246 -0.367814 11.2303
-0.716792 -0.367295 11.2286
0.0871206 -0.309038 9.86375
0.0994931 -0.30948 9.87799
-0.760143 -0.364956 11.3394
-0.772818 -0.386363 11.9456
0.0664213 -0.328003 10.4391
0.0251969 -0.309436 9.90381
-0.638407 -0.469962 14.5681
-0.771457 -0.350978 11.1164
-0.711989 -0.477667 15.0314
-0.0305284 -0.307861 9.93431
0.08421 -0.31042 10.0358
0.095725 -0.302275 9.78713
0.0933998 -0.301193 9.79376
0.0998024 -0.296277 9.63698
-0.637748 -0.399835 12.9971
-0.212872 -0.250957 9.19618
-0.446585 -0.330974 11.0232
-0.59141 -0.336761 11.3455
-0.489824 -0.32366 10.8332
-0.426038 -0.318727 10.6471
-0.358584 -0.34198 11.6224
0.09022 -0.295673 9.83567
-0.752489 -0.330936 11.1948
-0.486256 -0.320026 10.7943
-0.47163 -0.318271 10.7219
-0.347589 -0.332184 11.3638
0.0896529 -0.29913 10.046
-0.972934 -0.327823 11.2873
-0.690834 -0.323965 11.1873
-0.151831 -0.337726 12.0421
-0.0409108 -0.292002 9.88593
-0.0410279 -0.290327 9.87221
0.0255063 -0.284988 9.59171
-0.746396 -0.309607 11.057
-0.39809 -0.301292 10.6484
-0.386051 -0.300703 10.6139
-0.879208 -0.304452 10.8326
-0.394504 -0.302032 10.8896
-0.0981389 -0.292577 10.3294
-0.0434397 -0.286736 10.0434
0.0348424 -0.284895 9.9332
-0.0100261 -0.281637 9.63808
-0.680817 -0.292305 10.3259
-0.243381 -0.290566 10.4331
-0.0515948 -0.284432 9.977
-0.00838218 -0.280621 9.64682
-1.02244 -0.300463 11.1769
0.0171745 -0.281559 9.8848
-0.42723 -0.287449 10.4359
-0.453258 -0.295368 11.4097
-0.242323 -0.286394 10.4571
-0.0014361 -0.278309 9.64109
-0.358146 -0.282259 10.0487
0.0134738 -0.277005 9.62541
-0.0817865 -0.277891 9.88065
-0.0808834 -0.277846 9.87319
-0.195996 -0.454319 13.982
-0.333311 -0.533971 15.6904
0.0720927 -0.63678 10.0919
0.0805104 -0.606341 10.0027
0.0907472 -0.510355 9.7479
0.0814437 -0.384478 9.59552
-0.214485 -0.251464 9.20254
0.0958226 -0.34052 9.63354
0.0961925 -0.339374 9.63175
-0.330418 -0.252296 9.39547
-0.00868281 -0.261342 9.44851
-0.581852 -0.263479 9.98641
0.0959854 -0.315551 9.62603
-0.21495 -0.250851 9.20517
0.0974979 -0.309931 9.63028
0.0756396 -0.28557 9.57084
0.0909439 -0.278817 9.64423
-0.603298 -1.09317 21.3826
-1.45571 -2.77964 47.0984
-0.362269 -2.15144 37.5865
0.065605 -0.675623 10.3447
0.0360394 -0.555095 9.94994
0.0352759 -0.54603 9.91648
0.0485293 -0.538087 9.89229
0.0452669 -0.539693 9.9032
0.0896553 -0.547969 9.93472
0.0408101 -0.538064 9.90208
0.0284785 -0.541714 9.9259
0.010137 -0.532734 9.92825
0.09175 -0.464694 9.75222
0.0227828 -0.506737 10.3362
-0.587423 -0.497727 10.2741
-0.564958 -0.492759 10.2441
-0.95332 -0.819869 23.5816
-0.59828 -0.497545 10.2841
0.0408321 -0.397347 9.70015
-0.579433 -0.478994 10.2362
-0.474188 -0.494921 10.3441
-0.496428 -0.495762 10.3618
-0.00620502 -0.279727 9.88218
-0.616218 -0.473643 10.2854
0.0496499 -0.386182 9.71254
-0.566554 -0.460163 10.2304
-0.00461497 -0.271349 9.6687
-1.0041 -0.926165 13.7586
-0.494402 -0.466963 10.3523
-0.679393 -0.770997 12.6854
-1.37048 -0.906663 13.746
0.0920864 -0.431715 10.1464
-0.90027 -1.05784 15.0625
-0.900016 -1.06687 15.1338
0.0934633 -0.383881 9.80121
-0.595247 -0.422332 10.0954
-0.111781 -0.450553 10.3623
-0.121423 -0.565343 11.3362
-0.111589 -0.442648 10.3128
0.062062 -0.41505 10.1175
0.0859169 -0.400979 9.99847
-0.108151 -0.414024 10.1294
0.0617898 -0.406608 10.0724
-0.406663 -0.269548 10.7368
0.00784342 -0.354239 9.62057
-0.150068 -0.476721 10.7407
-0.283934 -0.511804 11.1063
-0.0698005 -0.385807 9.94591
-0.304628 -0.512392 11.1389
-0.256213 -0.481471 10.8502
0.0378347 -0.351535 9.64194
0.051263 -0.356186 9.6864
0.0792944 -0.391246 10.0322
-0.313659 -0.505698 11.1322
0.0816563 -0.361632 9.76093
-0.0259873 -0.408287 10.2233
0.083208 -0.38495 10.0006
-0.282738 -0.50031 11.1403
-0.0933515 -0.430241 10.4552
-0.920895 -0.990582 16.1662
0.0687592 -0.36035 9.79423
0.103903 -0.35979 9.79046
-0.774783 -0.50243 11.2286
-0.811927 -0.741342 13.697
-0.63031 -0.423071 10.4374
-0.920878 -0.961491 16.068
-0.176232 -0.498087 11.2501
-0.0773837 -0.403364 10.2622
0.0904277 -0.40824 10.3229
-0.0690206 -0.41075 10.3608
-0.662376 -0.475051 11.0414
-0.683742 -0.486112 11.1596
-0.656265 -0.496258 11.2707
-0.591716 -0.399545 10.2499
-0.664552 -0.471847 11.0378
-0.301877 -0.458548 10.9138
-0.0618641 -0.437956 10.7025
-0.18212 -0.476542 11.1515
-0.153356 -0.481152 11.2045
-0.0907555 -0.504121 11.4639
-0.691832 -0.682048 13.4755
-0.290785 -0.470692 11.1131
0.0011072 -0.48807 11.3275
-1.23632 -1.02515 17.4481
0.0708814 -0.408599 10.4579
0.0787402 -0.354879 9.8422
-0.221087 -0.256411 9.38907
-0.782777 -0.477751 11.2335
-0.609243 -0.468374 11.1354
0.0575837 -0.403921 10.4271
-0.722943 -0.469474 11.1767
-0.652441 -0.461125 11.1179
0.14015 -0.47692 11.4015
-0.641467 -0.454457 11.1102
-0.893201 -0.840311 15.8939
-0.101669 -0.275045 9.89274
-0.773193 -0.439044 10.9791
-0.642576 -0.452271 11.1588
-0.802839 -0.747276 14.9467
-1.04445 -0.934434 17.3398
-0.0367124 -0.392295 10.4298
0.0931686 -0.342419 9.79681
-0.548283 -0.456441 11.2604
-0.650881 -0.44155 11.0965
0.080285 -0.401457 10.616
0.0145165 -0.348424 9.90321
0.0696326 -0.351486 9.94819
-0.225351 -0.262822 9.6486
-0.676101 -0.439876 11.1121
-0.529482 -0.447365 11.2251
-0.78278 -0.446205 11.2329
0.0947625 -0.337688 9.79808
0.060036 -0.395448 10.6277
-0.799487 -0.449754 11.3732
-0.185066 -0.639003 14.147
0.0345275 -0.443669 11.4528
-0.710031 -0.686109 15.1485
-0.816937 -1.09663 21.4171
-0.0491039 -0.429842 11.287
-0.760595 -0.431527 11.3007
-0.640752 -0.538348 12.9795
-0.7671 -0.69925 15.4811
-0.601838 -1.04264 20.8586
0.0267921 -0.337946 9.909
0.0931156 -0.330392 9.79691
-0.720863 -0.690175 15.4831
0.00571664 -0.337813 9.92659
0.0936371 -0.32903 9.79442
-0.382779 -1.14574 23.0908
-0.694426 -0.281618 11.0095
-0.767177 -0.952517 20.1529
-0.818233 -0.868769 18.9795
0.0628334 -0.353179 10.3664
-0.020955 -0.267802 9.61991
0.0655765 -0.360804 10.5474
-0.891566 -0.403034 11.2992
-0.790474 -0.395533 11.1656
-0.724207 -0.397946 11.2196
-0.655187 -0.389299 11.0603
-0.827894 -0.506414 13.3028
-0.143174 -0.64214 16.0003
-0.893983 -0.399652 11.296
-0.672591 -0.390311 11.1362
-0.821602 -0.713316 17.5254
-0.0275831 -0.596644 15.3025
-0.0609275 -0.278083 9.72227
0.0916542 -0.318127 9.79216
-0.0771492 -0.278932 9.90317
-0.786704 -0.389285 11.1633
-1.5146 -1.6217 36.1987
0.0749378 -0.350407 10.4726
-0.224353 -0.268141 9.71851
0.0844409 -0.326204 10.0431
0.0928731 -0.314528 9.79214
-0.929366 -0.513825 14.1176
-0.691617 -0.342353 10.38
-0.666151 -0.381578 11.2828
-0.799435 -0.628818 16.9338
0.018428 -0.31706 9.89512
-0.779228 -0.417181 12.1859
-0.807885 -0.40935 12.0991
-1.21666 -0.639398 17.6664
-0.945279 -0.615648 17.4069
-0.0972831 -0.372636 11.3853
-0.687503 -0.362583 11.1191
0.0868584 -0.314999 9.9917
-0.772032 -0.369936 11.3867
-0.775069 -0.395053 12.0686
-0.802161 -0.403998 12.3073
-0.67169 -0.50596 15.0983
-0.836713 -0.609308 17.8797
-0.203909 -0.483569 14.5648
-0.128361 -0.3904 12.0457
-0.0197136 -0.387951 11.9965
0.0780635 -0.306435 9.79753
0.0210489 -0.309269 9.90196
-0.0296137 -0.309264 9.93248
0.0750166 -0.323435 10.3664
-0.771347 -0.362641 11.5825
-0.617028 -0.413688 13.2393
0.0930441 -0.301389 9.79303
0.0830843 -0.307584 10.0375
0.0920713 -0.300226 9.79401
-0.0695396 -0.303682 9.92293
-0.0745153 -0.302131 9.91535
0.0265474 -0.301155 9.90165
-0.793137 -0.335958 11.1073
-0.831771 -0.332111 11.0625
-0.477246 -0.324525 10.84
0.0238619 -0.296816 9.88786
-0.775368 -0.327467 11.1324
-0.414885 -0.348483 12.1941
-0.782556 -0.32777 11.2922
-0.693103 -0.325259 11.1959
0.0326466 -0.30345 10.344
-0.767284 -0.322156 11.1723
-0.468906 -0.351975 12.8265
-0.249207 -0.343325 12.4433
-0.184877 -0.33138 11.8386
-0.18082 -0.331637 11.8533
-0.119909 -0.32481 11.5153
-0.0669179 -0.295223 9.9841
-0.678041 -0.303322 10.3144
-0.0839915 -0.31671 11.2707
-0.37655 -0.282332 10.2798
-0.762088 -0.315947 11.3732
-0.401072 -0.301689 10.7349
-0.0937309 -0.289999 10.0162
0.100616 -0.285609 9.78132
-0.361236 -0.297227 10.593
-0.099893 -0.292391 10.3293
-0.465911 -0.295894 10.6215
-0.244202 -0.292602 10.4441
-0.0437121 -0.286544 10.0024
0.0272131 -0.285134 9.913
-0.758707 -0.299676 11.0715
-0.124569 -0.289197 10.3821
-0.0525936 -0.28487 9.97662
0.0969546 -0.280838 9.77343
-0.430557 -0.287265 10.4096
-0.45635 -0.294226 11.4008
0.00294025 -0.2797 9.88744
-0.354831 -0.285066 10.4636
0.0362933 -0.543557 9.90938
0.0346293 -0.352941 9.65729
0.0969246 -0.326532 9.75394
-0.682674 -0.365237 10.3535
0.0913163 -0.318179 9.78998
0.0923737 -0.301025 9.79376
0.105623 -0.297911 9.80296
0.100879 -0.284543 9.77937
0.097567 -0.281358 9.77624
-0.45514 -0.799095 19.9455
-0.0638405 -0.589911 10.3101
-0.576436 -0.499146 10.2702
-0.555934 -0.485747 10.2121
-0.603132 -0.495803 10.2801
-0.595505 -0.494654 10.2735
-0.490096 -0.502817 10.3832
-0.619303 -0.480969 10.2847
-0.463199 -0.479833 10.3076
-0.580829 -0.466383 10.2246
0.0510748 -0.382788 9.71405
-0.0521955 -0.27369 9.88418
-0.0732726 -0.278693 9.88633
-0.494085 -0.462676 10.3503
-0.0436756 -0.273665 9.87319
-0.854126 -1.0191 14.58
-0.110387 -0.451766 10.389
-0.0764572 -0.400324 9.97943
-0.538613 -0.441222 10.2929
-0.148163 -0.429635 10.223
0.085805 -0.399481 9.99332
-0.0735064 -0.396083 9.96678
0.0109976 -0.356648 9.64941
0.0110704 -0.280366 9.87977
0.0642191 -0.450327 10.5581
0.00216312 -0.420243 10.2996
-0.311764 -0.512371 11.1419
-0.155147 -0.486241 10.9124
0.0802727 -0.383486 9.98306
-0.101054 -0.275143 9.94073
-0.613449 -0.50807 11.1074
-0.313471 -0.512104 11.1665
-0.0893225 -0.426207 10.3817
-0.326549 -0.506053 11.1363
-0.295656 -0.521104 11.3408
-0.191286 -0.506712 11.2091
-0.156755 -0.508817 11.2321
-0.78311 -0.499997 11.1279
-0.107749 -0.49634 11.1722
-0.687997 -0.497572 11.1692
0.0899678 -0.357558 9.81697
-0.903181 -0.959836 15.9124
-0.772797 -0.49738 11.2216
-0.649296 -0.4854 11.1072
0.0613494 -0.432765 10.6183
0.075892 -0.430197 10.5928
0.0922975 -0.394114 10.2197
-0.221831 -0.260752 9.47581
-0.182053 -0.488678 11.2101
-0.147462 -0.489965 11.2265
-0.00546767 -0.488702 11.2248
0.0906588 -0.350931 9.79393
-0.285339 -0.473222 11.0991
-0.101198 -0.514796 11.5652
-0.643812 -0.470535 11.0702
-0.64795 -0.475738 11.1271
-0.864806 -0.820791 14.9934
-0.300986 -0.472904 11.1581
-0.71513 -0.47398 11.1668
-0.184728 -0.407984 10.4656
0.0597227 -0.404328 10.4458
0.0585433 -0.400898 10.4518
-0.392889 -0.278628 10.1182
-0.901272 -0.86365 15.8875
-0.645993 -0.4558 11.1311
-0.00512419 -0.279272 9.86663
-0.724078 -0.459156 11.2015
0.0502944 -0.352948 9.95071
0.0619655 -0.350922 9.92655
0.0919626 -0.340142 9.7948
-0.857938 -0.793717 15.4794
-0.354698 -0.285661 10.4565
-0.154686 -0.64394 14.0863
-0.0708984 -0.445623 11.3355
-0.776625 -0.440918 11.234
0.0921335 -0.332594 9.79556
-0.138256 -0.660297 14.5253
-0.175311 -0.28652 10.2137
0.0256842 -0.284059 9.90748
0.068446 -0.384373 10.6556
-0.753739 -0.699456 15.5352
-0.697385 -0.677775 15.2019
-0.0773524 -0.427156 11.3445
-0.0287544 -0.361996 10.3274
0.0832722 -0.338977 9.98
-0.452465 -0.75585 16.6217
-0.237505 -0.289481 10.313
-0.838817 -0.411065 11.0847
-0.477351 -0.805446 17.6023
-0.0364156 -0.43844 11.6398
-0.819351 -0.411739 11.1461
-1.24773 -1.24371 25.0486
-0.872488 -1.07516 22.2711
-0.38507 -0.294463 10.7874
-0.729928 -0.607387 14.5683
-1.24852 -1.26335 25.7609
-0.752484 -0.942391 20.318
-0.596149 -0.793626 17.785
-0.75659 -0.299852 11.0719
-0.877015 -0.763656 17.4284
0.0688217 -0.355858 10.3924
-0.227413 -0.269047 9.72063
-0.786091 -0.399234 11.1356
-0.865681 -0.711761 16.8953
0.0189588 -0.460417 12.386
0.0599578 -0.447457 12.1528
-0.173576 -0.748958 17.9099
-0.127256 -0.290487 10.3297
-0.843146 -0.515009 13.4907
-0.0981 -0.277711 9.84314
-0.860693 -0.508546 13.4807
0.0171124 -0.366053 10.827
0.0836647 -0.324362 9.9821
-0.814725 -0.408459 11.1917
-0.675222 -0.382743 11.1128
-0.832219 -0.388967 11.2827
-0.677888 -0.381553 11.1489
-0.652356 -0.384248 11.212
-0.83948 -0.733538 18.7754
-0.853688 -0.482046 13.4344
-0.83619 -0.484162 13.485
-0.751122 -0.414395 12.0293
-0.679877 -0.414199 12.0383
-0.0466357 -0.278429 9.85158
0.0851972 -0.321537 10.041
0.0442751 -0.397502 11.8802
0.0683619 -0.341498 10.5481
-0.780916 -0.374967 11.3319
-0.706604 -0.365385 11.1785
-0.785354 -0.403122 12.2772
-0.13778 -0.495787 14.9661
-0.114788 -0.380012 11.9034
0.0206095 -0.308616 9.90051
-0.810146 -0.39797 12.3825
-0.753334 -0.388228 12.1076
-0.194145 -0.423314 13.2851
-0.120505 -0.372779 11.8048
0.012174 -0.308227 9.92335
-0.757312 -0.359263 11.3422
-0.628172 -0.420243 13.2594
-0.790331 -0.353051 11.2356
-0.946965 -0.494371 15.7519
-0.131434 -0.358302 11.5813
-0.0396752 -0.305992 9.91863
0.0811715 -0.30847 10.0309
-0.39305 -0.293402 10.4015
0.0870839 -0.304871 9.95858
-0.0693479 -0.303831 9.92207
-0.447928 -0.29558 10.5872
0.0232403 -0.298348 9.88324
-0.688343 -0.332665 11.1782
-0.416694 -0.437558 15.871
-0.0758987 -0.318671 10.7897
-0.793745 -0.327852 11.0508
-0.0601188 -0.294301 10.5725
-0.781439 -0.326105 11.1076
-0.684082 -0.326349 11.1603
-0.331016 -0.361558 13.0579
-0.156309 -0.336873 11.9035
-0.0871482 -0.369072 13.5332
-0.208748 -0.337433 12.1207
-0.341255 -0.314434 10.9784
-0.100378 -0.30403 10.6238
-0.856257 -0.314911 11.0821
-0.397775 -0.299971 10.629
-0.0138906 -0.288421 9.93377
-0.363956 -0.295729 10.4646
-0.0367887 -0.27373 9.845
-0.694459 -0.485007 10.3042
-0.683337 -0.467274 10.2653
-0.10536 -0.547288 11.2957
-0.61706 -0.392165 10.3705
0.0337786 -0.342783 9.98407
-0.368915 -0.281734 10.2605
0.0184573 -0.41353 9.24106
-0.0073923 -0.417925 9.26778
0.0135268 -0.420132 9.3195
0.0237519 -0.417754 9.3287
0.0201536 -0.407299 9.31506
0.0205675 -0.401435 9.31651
-0.0977279 -0.331662 9.021
0.0289899 -0.397063 9.32501
0.0222635 -0.38809 9.31963
0.0224786 -0.379955 9.31798
0.00786079 -0.358461 9.22054
0.0215753 -0.372472 9.31536
0.0221913 -0.369277 9.31484
0.0084109 -0.351652 9.22224
0.0109467 -0.340873 9.2239
0.0244933 -0.354152 9.31734
0.0401785 -0.352813 9.34723
0.0258349 -0.338537 9.31688
0.0255278 -0.336878 9.31599
-0.0885096 -0.526755 11.1382
0.0196132 -0.328589 9.31797
0.0269972 -0.32624 9.31826
-0.644528 -0.391363 10.4856
0.0299562 -0.303927 9.32284
-0.399769 -0.252597 9.44814
0.0307708 -0.303137 9.32284
0.0312553 -0.301003 9.32682
0.029281 -0.297437 9.31852
0.0338261 -0.289333 9.33234
0.0284047 -0.287323 9.31859
-0.438226 -0.331837 10.9488
0.0552399 -0.470975 9.52456
0.0147454 -0.414252 9.32098
0.0151176 -0.403017 9.31983
0.0133576 -0.399987 9.31682
0.0175138 -0.378874 9.32032
0.0182687 -0.37261 9.32029
-0.658214 -0.48839 10.0785
0.0183125 -0.360955 9.32074
0.0184204 -0.358671 9.32115
0.0186591 -0.349054 9.31956
-0.359371 -0.252303 9.41506
0.0183933 -0.3435 9.31886
0.00299509 -0.264426 9.28404
0.0182611 -0.334904 9.31866
-0.0879466 -0.544752 11.2734
0.0895634 -0.43909 10.3338
0.0497249 -0.344483 9.47116
-0.0424172 -0.28753 9.71118
-0.331176 -0.504468 11.2682
0.05523 -0.399853 10.2535
-0.0116637 -0.403294 10.3379
-0.0135781 -0.40146 10.3417
0.0899048 -0.266404 10.132
-0.393943 -0.251428 9.45439
-0.352734 -0.254481 9.43516
-0.0120088 -0.436474 11.3629
-0.633617 -0.339362 11.6031
0.0441228 -0.378814 10.6733
-0.827098 -0.360117 10.451
0.0952293 -0.320403 9.94374
-0.89522 -0.34869 10.6183
-0.831074 -0.337814 10.5382
-0.387093 -0.284601 10.3438
0.0623979 -0.73817 10.3494
0.0607993 -0.737454 10.3544
0.0680941 -0.674314 10.1993
0.0755158 -0.650435 10.1343
0.0858364 -0.605643 10.0158
0.107469 -0.6078 10.0243
-0.00631631 -0.277594 9.65856
0.0620562 -0.630864 10.3202
0.0589612 -0.40279 9.59673
-0.405692 -0.30406 10.9073
-0.0673613 -0.469708 10.5635
-0.0654363 -0.468347 10.5513
-0.00320257 -0.412822 10.0516
0.0947405 -0.309193 9.86065
0.0745673 -0.386087 10.1406
-0.728118 -0.479505 11.2271
-0.0630249 -0.276753 9.6602
-0.486469 -0.314169 10.8011
0.0939516 -0.339366 9.63189
0.0855396 -0.390839 10.3248
0.0970996 -0.347999 9.77432
0.117703 -0.351404 9.8198
-0.0384904 -0.398146 10.4693
0.0969899 -0.305508 9.63032
-0.606889 -0.273101 10.3896
-0.844387 -0.405143 10.5956
0.0925407 -0.330295 9.62293
0.115534 -0.44598 11.3062
-0.453494 -0.317554 10.716
-0.470984 -0.277792 10.134
-0.48832 -0.323306 10.8317
0.0972234 -0.314186 9.63519
-1.00928 -0.410039 11.4171
-0.221973 -0.256271 9.39612
0.0639252 -0.71083 10.3455
-0.946649 -0.744202 18.8667
0.0682513 -0.693094 10.3611
0.0345698 -0.545877 9.91605
0.0355941 -0.543407 9.91236
0.0608072 -0.524948 9.84094
-0.0623485 -0.279434 9.67856
-0.121534 -0.364158 11.5188
-0.674736 -0.29464 10.3012
-0.221459 -0.259434 9.47936
-0.612205 -0.479804 10.3005
0.0635177 -0.331505 10.5265
-0.117168 -0.378616 11.8208
-0.846773 -0.315356 11.2354
-0.776676 -0.400607 11.9502
0.092039 -0.32829 9.79636
0.0317337 -0.40836 11.7613
-0.0973506 -0.397138 10.9774
0.0557022 -0.353738 9.69517
0.0764143 -0.354734 9.84018
0.0993289 -0.327595 9.7609
0.0265822 -0.336642 9.90727
-0.0501185 -0.326715 9.98917
0.109217 -0.342256 9.79315
-0.103257 -0.736926 16.5399
-0.408644 -0.314039 10.6914
-0.440435 -0.313261 10.646
0.0246693 -0.318792 9.89627
0.0671875 -0.678154 10.3543
0.0522265 -0.627137 10.2504
0.0178659 -0.307486 9.88468
-0.748044 -0.398031 11.2808
-0.030698 -0.30925 9.92701
-0.58583 -0.462474 10.2167
0.0475068 -0.393438 9.71194
-0.222541 -0.260427 9.47999
0.0513381 -0.387476 9.71714
-0.387707 -0.298501 10.5462
0.0933134 -0.352513 9.81341
0.13319 -0.474196 11.2689
-0.0236033 -0.265509 9.60775
-0.168714 -0.466793 10.7827
-0.0616123 -0.411711 10.2628
-0.0699739 -0.428521 10.518
-0.069416 -0.415074 10.3934
0.0835525 -0.402609 10.3115
-0.751468 -0.324758 11.407
-0.0823613 -0.429597 11.2486
-0.665759 -0.382101 11.0973
-0.806401 -0.453491 11.4357
-0.647825 -0.902235 19.2376
-0.786525 -0.38611 11.1668
-0.898983 -1.10542 22.9195
-0.418469 -0.440835 16.0336
-0.34269 -0.379107 13.6873
-1.15703 -1.17849 23.7887
-0.655877 -0.40953 11.8735
-0.0658189 -0.274004 9.89017
-0.890704 -0.980915 23.545
-0.700285 -0.465108 12.7647
-0.149093 -0.327484 11.5608
-0.197368 -0.489738 11.3898
-0.793381 -0.35297 11.2611
-0.592402 -0.388286 11.1699
-0.310249 -0.47116 11.1579
-0.668274 -0.438407 11.1261
0.0141746 -0.279613 9.88305
-0.313688 -0.471217 11.1584
0.0793311 -0.400059 10.606
-0.82085 -0.34703 11.8793
-0.52773 -0.449155 11.1977
-0.118591 -0.377829 12.0519
0.00419215 -0.279661 9.88091
-0.618566 -0.418093 13.1802
-0.941212 -0.29878 11.2012
0.0160095 -0.281162 9.8844
0.0126291 -0.281174 9.88341
-0.00992903 -0.281462 9.8957
-0.702003 -0.355374 11.2487
-0.650208 -0.446369 11.1041
-0.87032 -0.300318 11.0818
-0.607129 -0.468664 11.1058
-0.23662 -0.289714 10.3133
-0.663243 -0.388664 11.1012
-0.16692 -0.471476 11.1724
-0.344218 -0.336044 11.3888
-0.0994652 -0.276179 9.96062
-0.731121 -0.457996 11.2552
-0.600461 -1.38098 34.9555
-0.0972944 -0.293723 10.3592
-0.584661 -0.498742 10.2727
-0.602297 -0.495991 10.2816
-0.552046 -0.487973 10.2712
-0.190873 -0.454142 14.1428
-0.331899 -0.29736 10.4955
-0.488301 -0.492698 10.3376
-0.720225 -0.422194 11.285
-0.461611 -0.482088 10.2926
-0.342914 -0.386616 12.1342
-0.664138 -0.486258 14.9926
-0.823899 -0.711295 16.205
-0.7812 -0.692383 15.7252
-0.76492 -0.363281 11.3687
0.0648032 -0.428125 10.6373
-0.0711827 -0.414659 10.4962
-0.720516 -0.48131 11.2092
-0.796176 -0.34588 11.1381
-0.885525 -1.07009 15.0289
-0.723334 -0.481084 11.2063
-0.316658 -1.14035 22.9207
-0.38723 -0.664995 15.4629
-0.337467 -0.312905 10.9331
-0.882646 -1.1024 22.2432
-0.222082 -0.267747 9.72252
0.0639341 -0.416064 10.4668
-0.306046 -0.518602 10.9935
-0.881293 -0.710919 17.3968
-0.935084 -1.00268 24.4424
0.0658283 -0.361432 10.5431
-0.306338 -1.02657 21.9458
-0.283174 -0.520629 11.0414
-0.759931 -0.316848 11.3619
-0.61602 -0.463226 11.1172
-0.0522147 -0.333267 9.98481
-0.767085 -0.326306 11.1426
-0.633965 -0.692961 12.6516
-0.0705847 -0.303545 9.88868
-0.288687 -0.475901 11.1383
-0.808194 -0.406936 11.1846
0.011674 -0.424077 11.2244
-0.0716393 -0.292426 9.8764
-0.299627 -0.479783 14.2186
-0.910014 -0.596225 17.1618
-0.706301 -0.366138 11.1739
-0.0333398 -0.410288 10.1481
-0.182195 -0.327151 11.7318
-0.292778 -0.510144 11.1552
-0.319009 -0.510602 11.1916
-0.593402 -0.42293 10.3026
-0.289331 -0.523614 11.3623
-0.193946 -0.502998 11.1553
-0.0622971 -0.392667 11.764
-0.60561 -0.424308 10.3384
-0.198121 -0.504477 11.2049
-0.741073 -0.71073 15.719
-0.990124 -1.03325 16.8121
-0.28522 -0.494549 11.2756
-0.142651 -0.511108 14.8482
-0.680633 -0.492316 11.1855
0.0912716 -0.336595 6.33091
0.0706785 -0.250344 6.81071
-0.711539 -0.285332 8.49807
0.128312 -0.187161 6.46576
-0.0814729 -0.122023 5.82812
0.0478225 -0.326397 6.64956
0.0969337 -0.219035 6.02769
0.0740383 -0.13616 5.97498
0.0984048 -0.199935 6.02988
-0.78132 -0.295795 7.45595
0.0979219 -0.173997 6.03324
0.0887339 -0.288562 6.03015
0.0677581 -0.353885 6.3208
-0.138795 -0.106796 5.96438
-0.607622 -0.368968 6.82939
-0.684457 -0.389936 7.00216
-0.637537 -0.32907 6.89151
-2.19273 -0.985965 12.4605
-0.306475 -0.140942 6.15485
-0.307167 -0.140965 6.15406
0.109276 -0.261386 6.79219
-0.524814 -0.152849 6.58286
-0.805897 -0.314423 8.34757
0.0887857 -0.185288 6.03382
-0.596664 -0.233145 8.74578
-0.551606 -0.186282 7.05024
0.155639 -0.303833 6.32926
0.156799 -0.295945 6.33744
0.157274 -0.295536 6.33493
0.132124 -0.339018 6.64049
0.0469137 -0.344115 6.71398
-0.602881 -0.361264 6.82682
0.0252766 -0.240844 6.51333
0.0828399 -0.272648 7.23091
0.159706 -0.206077 6.35278
0.106306 -0.170512 6.26937
0.0946203 -0.355846 6.32941
0.14588 -0.352254 6.38238
0.113833 -0.347417 6.37088
-0.560827 -0.4332 6.80513
-0.507687 -0.400069 6.71885
0.153912 -0.317312 6.47704
0.0978289 -0.285861 6.49438
0.115789 -0.277174 6.527
-0.573621 -0.188322 7.31015
0.0698775 -0.269542 6.7051
0.075319 -0.221784 6.25428
-0.911113 -0.327704 7.58224
-0.558859 -0.322397 7.68001
-0.730683 -0.280683 7.31086
0.164208 -0.37518 6.49451
-0.475744 -0.181261 7.37429
-0.00547249 -0.353406 6.62126
0.0541622 -0.319278 6.62196
0.0513576 -0.318741 6.65165
0.159017 -0.289171 6.52182
0.159765 -0.284645 6.53111
-0.781836 -0.433569 7.86221
-0.884887 -0.454562 8.46409
0.0879709 -0.214197 6.31239
0.0495661 -0.266008 6.66596
-0.581311 -0.357354 7.96798
0.169867 -0.477298 6.90505
-0.522111 -0.160569 6.94923
-0.767777 -0.343491 8.89006
-0.50313 -0.334161 10.9396
-0.533772 -0.166706 6.97475
0.104133 -0.323603 6.55121
0.0121532 -0.347764 6.71529
-0.0137778 -0.345948 6.87452
-0.680912 -0.440009 7.59669
-0.174294 -0.210741 8.33676
-0.780433 -0.274497 7.60745
-0.933776 -0.319089 7.93203
0.0395166 -0.404662 6.75839
0.0209811 -0.344498 6.59633
-0.735892 -0.230085 7.49574
-0.695328 -0.441127 7.62671
-0.679767 -0.257125 7.67894
-0.736686 -0.265265 8.09873
-0.90051 -0.324995 7.87456
-0.5461 -0.165692 7.25272
-0.720458 -0.244677 7.51949
-0.583358 -0.166449 7.43029
-0.594614 -0.166178 7.33981
-0.587976 -0.445793 7.62045
-0.71286 -0.24164 7.51338
-0.784477 -0.75757 7.95992
0.133381 -0.267603 6.84789
0.129887 -0.408375 8.1011
-0.725614 -0.260212 7.61434
-0.911748 -0.355213 8.01367
-0.903071 -0.510545 8.04448
-0.87149 -0.429442 8.03468
-0.582934 -0.323267 7.69065
-0.861315 -0.411096 8.02462
-0.883432 -0.412503 8.03817
-0.631966 -0.188471 7.47826
-0.808883 -0.41664 7.97948
-0.822407 -0.384744 8.00139
-0.458718 -0.310563 14.3469
0.0483 -0.180061 6.93125
-0.773164 -0.29986 8.01525
0.13003 -0.227234 7.50299
-0.650575 -0.383121 8.02817
0.126043 -0.337858 8.40032
0.0976248 -0.416666 7.88055
-0.662994 -0.396672 7.9883
0.0500649 -0.178856 7.14223
0.0234731 -0.17882 7.13191
-0.758297 -0.386321 9.21526
-0.692942 -0.404661 8.07169
-0.574743 -0.334228 7.88256
-0.69465 -0.554649 8.9168
-0.551565 -0.345542 7.90351
-0.562849 -0.382303 7.90953
-0.608163 -0.469519 9.12594
-0.130147 -0.219961 8.07953
-0.693054 -0.430294 9.33912
0.123408 -0.302064 7.63389
-0.737403 -0.590762 8.48521
-0.75342 -0.590195 8.48094
0.150827 -0.409047 7.90297
-0.610359 -0.463922 9.17811
-0.730627 -0.581117 8.5336
-0.730016 -0.293362 8.58816
0.152552 -0.36374 7.99275
-0.0787807 -0.249516 10.8549
-0.0113097 -0.440769 8.86514
-0.210768 -0.214795 8.79343
-0.584628 -0.19389 8.4248
-0.16483 -0.224076 9.34681
-0.704069 -0.483208 9.05499
-0.578081 -0.430983 9.21003
-0.716583 -0.606792 8.9589
-0.730076 -0.300383 8.97254
-0.906599 -0.979169 15.9365
-0.82835 -0.710705 10.2136
-0.867647 -0.723026 17.1101
-0.708214 -0.680782 14.9217
-0.732595 -0.826873 13.854
-0.583381 -0.497038 10.2957
-0.750524 -0.833159 13.9322
-0.102847 -0.343268 11.8056
-0.0643166 -0.344482 10.6357
0.00659316 -0.507778 9.93569
-0.55983 -0.494591 10.2415
0.169173 -0.245224 10.1337
0.0542704 -0.354065 9.80687
0.056922 -0.353037 9.80503
0.0858093 -0.32085 9.89865
0.0953243 -0.314346 9.94651
-0.00411281 -0.274684 9.66731
-0.387642 -0.299007 10.583
0.0818222 -0.304289 9.94071
-0.531872 -0.465669 10.2441
0.120352 -0.516053 10.5895
0.0475511 -0.47258 10.3865
-0.550384 -0.455455 10.314
-0.506157 -0.436092 10.2151
0.208351 -0.431422 10.2774
-0.00697779 -0.38951 9.99159
0.0572115 -0.406571 10.1691
-0.587695 -0.43274 10.3697
-0.166508 -0.455676 10.5934
-0.0034956 -0.368474 9.88954
-0.0161501 -0.274363 9.74273
-0.0901568 -0.430031 10.533
0.0804945 -0.350595 9.97334
0.0806431 -0.349602 9.97381
-0.652026 -0.436334 11.1148
0.0790487 -0.339966 9.96915
0.022069 -0.322275 9.88617
-0.00742246 -0.27148 9.77008
0.0805302 -0.325662 9.97067
0.0809724 -0.325591 10.0316
0.081671 -0.322583 9.97093
0.0812768 -0.324527 10.0326
0.0806522 -0.318481 9.97117
-0.700489 -0.411803 12.1069
0.0224584 -0.314262 9.89107
-0.0290106 -0.272282 9.74223
-0.704821 -0.366484 11.1698
0.0817467 -0.313334 9.97133
0.0230069 -0.309979 9.89994
0.0793144 -0.305174 9.9739
0.0785916 -0.30306 9.97174
0.0834358 -0.302417 9.94541
0.0287344 -0.29608 9.90665
-0.58887 -0.27355 10.3248
0.088992 -0.285502 9.96483
-0.589324 -0.276547 10.326
-1.37303 -1.97827 46.3496
-0.309264 -0.527013 15.4353
-0.012564 -0.277086 9.86224
-0.498282 -0.504314 10.3764
-0.479375 -0.497631 10.3493
-0.459658 -0.481416 10.2939
-0.0293699 -0.277746 9.8872
-0.514479 -0.466029 10.2799
-0.0763685 -0.277558 9.92067
0.0870013 -0.477217 10.3766
0.00024416 -0.400397 9.91618
-0.348924 -0.273705 10.3504
-0.549867 -0.490564 10.5317
-0.335526 -0.276579 10.1005
-0.348243 -0.246069 10.1399
-0.551778 -0.448189 10.3362
-0.559523 -0.447274 10.3402
-1.54102 -1.15624 15.4836
-1.61906 -1.32607 16.7116
-0.374984 -0.275188 10.2338
-0.855257 -1.02832 14.6818
-0.11485 -0.52834 11.0067
-0.0525479 -0.278547 9.90783
-0.877085 -1.05283 14.9197
-0.0546216 -0.278501 9.91312
-0.067632 -0.278498 9.91886
-0.00259232 -0.279622 9.86889
-0.00778415 -0.279597 9.87418
-0.124913 -0.519332 11.0122
0.0805395 -0.391866 10.0365
-0.0947839 -0.53892 11.2056
0.0697264 -0.458888 10.5807
-0.0185625 -0.279626 9.87608
-0.362875 -0.279054 10.1057
-0.401165 -0.278786 10.1539
-0.0931238 -0.523781 11.1068
-0.0408138 -0.273061 9.84969
-0.299042 -0.523454 11.1403
-0.298137 -0.537592 11.2551
0.0172626 -0.280313 9.88351
0.0494475 -0.551266 11.376
-0.0818512 -0.282274 9.94129
-0.398558 -0.283222 10.3348
-0.101781 -0.28516 10.131
-0.342969 -0.286007 10.3537
-0.0425508 -0.286042 9.91952
0.0774508 -0.384404 10.0303
-0.0460738 -0.286065 9.93389
-0.296846 -0.513392 11.1896
-0.133757 -0.51878 11.2415
-0.0495334 -0.274801 9.85108
-0.916402 -0.598447 11.943
-0.32618 -0.502329 11.138
-0.298876 -0.521795 11.3123
-0.171121 -0.515399 11.2594
-0.0584378 -0.503037 11.1527
-0.842545 -0.503372 11.1545
-0.820782 -0.500662 11.1307
-0.800202 -0.503705 11.1588
-0.815329 -0.523193 11.3342
-0.781621 -0.867887 14.4454
-0.220294 -0.500421 11.1478
-0.11813 -0.503762 11.1812
-0.0299288 -0.414702 10.3804
-0.0571908 -0.369641 9.97295
0.0605382 -0.403119 10.2788
0.0750955 -0.40732 10.3172
0.0813722 -0.404333 10.2904
-0.801668 -0.497031 11.1219
-0.801741 -0.500664 11.1551
-0.201615 -0.50082 11.176
-0.0576975 -0.286107 9.9184
0.0768227 -0.405133 10.311
-0.756517 -0.497353 11.1504
0.00395374 -0.50078 11.2072
-0.823101 -0.808956 14.0921
0.0794005 -0.39975 10.2886
-0.29633 -0.50527 11.3182
-0.227246 -0.268844 9.72273
-0.744838 -0.495682 11.2641
-0.787312 -0.829372 14.557
-0.615113 -0.473354 11.0732
-0.0375575 -0.486071 11.2214
-0.706603 -0.483432 11.1977
-0.641981 -0.470158 11.0654
-0.641011 -0.470791 11.0719
-0.921233 -0.962223 16.0475
-0.324106 -0.48377 11.2152
-0.313067 -0.473101 11.1074
-0.103385 -0.28641 10.1267
0.0880016 -0.428982 10.6746
0.0547201 -0.403827 10.4181
0.0738268 -0.40824 10.4636
0.0615229 -0.392669 10.3052
-0.8424 -0.471048 11.0929
-0.784267 -0.484369 11.2322
-0.313692 -0.471313 11.1155
-0.299606 -0.486779 11.2751
-0.084562 -0.48398 11.2544
0.0614478 -0.391154 10.3049
-0.784476 -0.480804 11.2236
-0.343859 -0.287576 10.3922
-0.324195 -0.475676 11.216
0.0477419 -0.355032 9.95341
-0.623298 -0.466011 11.1297
-0.0188883 -0.287823 9.9089
-0.909794 -0.90601 15.9422
0.052888 -0.486949 11.4133
-0.180073 -0.289832 10.3174
0.0763416 -0.396862 10.4324
-0.642527 -0.458069 11.0986
-0.0741625 -0.41133 10.6047
0.0758409 -0.415075 10.6522
-0.654598 -0.456976 11.1146
-0.159675 -0.469267 11.2732
-0.849485 -0.458276 11.1506
-0.571863 -0.44888 11.0552
-0.788923 -0.680963 13.6934
0.00747824 -0.34475 9.89178
-0.725703 -0.459949 11.2058
-0.797497 -0.672387 13.6643
0.0740671 -0.381181 10.3275
-0.240279 -0.29022 10.3581
-0.792152 -0.663088 13.6263
0.0484938 -0.460961 11.2835
0.0761479 -0.389239 10.4403
0.085977 -0.388957 10.4374
0.0737415 -0.379543 10.326
-0.0165243 -0.288827 9.92439
0.0783943 -0.374574 10.2849
-0.790389 -0.455107 11.2426
-0.383215 -0.384314 10.4001
0.0770476 -0.398289 10.591
-0.668993 -0.439396 11.088
0.0071882 -0.340063 9.89078
-0.108822 -0.445382 11.2218
0.0185043 -0.339322 9.89357
-0.0855184 -0.289798 10.0716
-0.687103 -0.637517 13.6882
-0.868458 -0.778462 15.4835
0.0544069 -0.393145 10.596
-0.129345 -0.291219 10.3403
-0.176094 -0.752605 15.4016
-0.0806497 -0.441686 11.2829
-0.153716 -0.651954 14.1572
-0.636973 -0.42239 11.0658
-0.623733 -0.425446 11.1085
-0.0457431 -0.425684 11.1421
0.0088005 -0.336377 9.91608
-0.33306 -0.292353 10.3983
0.0355931 -0.445814 11.4655
-0.752844 -0.432903 11.2816
0.0895048 -0.363338 10.3332
-0.205015 -0.732105 15.847
-0.138348 -0.567938 13.4088
-0.0852601 -0.417688 11.177
-0.685397 -0.670337 15.0182
-0.0192052 -0.446956 11.6657
-0.701573 -0.416835 11.2097
-0.104266 -0.398753 10.9651
0.0864471 -0.363632 10.432
0.0826499 -0.33791 10.033
-0.576496 -0.809022 17.4714
-0.774329 -0.69571 15.8068
-0.737876 -0.927061 19.5538
-0.449752 -0.760912 16.8826
-0.311546 -0.811389 17.7083
-0.795798 -0.40514 11.1446
-0.829882 -0.730287 16.524
-1.02249 -1.06656 22.0774
-0.744922 -0.408748 11.2534
-0.887059 -1.07983 22.6074
-0.615228 -0.821633 18.2533
-0.125645 -0.859959 18.9346
0.0385749 -0.416163 11.4306
0.01673 -0.325318 9.89092
-0.884635 -0.410225 11.3176
-0.891367 -0.764707 17.4612
-0.105708 -0.293572 10.2574
-0.0614398 -0.274399 9.87751
0.0596064 -0.359074 10.5258
0.068038 -0.351064 10.3842
0.0683054 -0.35068 10.3774
0.00473855 -0.323767 9.91206
-0.69029 -0.305352 11.1664
-0.821023 -0.305122 11.0763
-0.853139 -0.30491 11.0362
-0.852815 -0.510513 13.458
-0.0687712 -0.274304 9.8849
-0.669032 -0.383906 11.0976
-0.864094 -0.459103 12.5602
-0.895815 -0.391373 11.2819
-0.731116 -0.388893 11.2449
-0.676529 -0.392165 11.3154
-0.602192 -0.385166 11.18
-0.756035 -0.562666 14.7518
-0.0681474 -0.29357 9.99073
-0.654771 -0.307751 11.1565
-0.756333 -0.309654 11.3033
-0.820171 -0.385682 11.2282
-0.813479 -0.486482 13.3217
-0.749631 -0.738348 18.5565
-0.76248 -0.313131 11.3574
0.00478175 -0.319037 9.91234
0.0156838 -0.317955 9.89077
-0.84119 -0.372018 11.0459
-1.12283 -0.928922 23.2775
-0.691353 -0.385786 11.4282
-0.786658 -0.420523 12.2077
-0.0703235 -0.29821 10.0174
-0.891275 -0.376773 11.2689
-0.681547 -0.370186 11.1343
-0.342749 -0.317338 11.0205
-0.192327 -0.655911 17.8693
-0.413673 -0.317256 10.9981
-0.745972 -0.327019 11.4953
-0.163179 -0.323847 11.2843
-0.791078 -0.369809 11.2443
-0.806537 -0.372659 11.314
-0.175146 -0.325522 11.3736
-0.848121 -0.48288 14.0659
-0.0328101 -0.395249 11.9566
-0.0391098 -0.333886 10.4216
-0.327669 -0.350637 12.718
-0.232419 -0.27452 9.91429
0.0631292 -0.326585 10.2858
-0.677798 -0.451728 13.6025
0.0895521 -0.325113 10.2882
-0.668722 -0.323075 11.1263
-0.077648 -0.276633 9.91855
-0.0869053 -0.276594 9.92459
-0.75924 -0.365075 11.3462
-0.757912 -0.38961 12.0296
-0.664062 -0.484566 14.6847
-0.675377 -0.587324 17.5452
-0.163111 -0.426566 13.1259
0.0812446 -0.323581 10.2853
0.0191593 -0.309625 9.88966
-0.780434 -0.329248 11.2854
-0.358735 -0.270819 10.4565
-0.760076 -0.333533 11.3598
-0.195623 -0.507778 15.627
-0.0879792 -0.358929 11.3309
-0.619981 -0.42365 13.3028
-0.0499517 -0.318138 10.193
0.00689594 -0.308618 9.91312
-0.629025 -0.386145 12.4354
-0.042102 -0.306674 9.90511
-0.788053 -0.347465 11.2342
0.0822707 -0.309041 10.0362
-0.205034 -0.774142 18.0901
-0.80281 -0.327949 11.0846
-0.0664058 -0.305682 9.93341
0.080621 -0.307886 10.0346
-0.660926 -0.381801 12.7636
-0.0594566 -0.304304 9.91929
-0.0136675 -0.300936 9.90555
-0.794478 -0.335892 11.0993
-0.792342 -0.335923 11.1008
-0.681828 -0.336836 11.1555
-0.0660083 -0.310367 10.1988
-0.0719121 -0.303492 9.92305
-0.0921111 -0.321562 10.7241
-0.0690936 -0.308348 10.1695
-0.069076 -0.302163 9.90803
0.0126201 -0.301161 9.87995
-0.0481161 -0.301054 9.90444
-0.0611561 -0.300923 9.89614
-0.840161 -0.330507 11.0786
-0.764082 -0.334002 11.2495
-0.462 -0.342361 11.6806
-0.434825 -0.338997 11.5347
-0.398765 -0.356745 12.3376
-0.105596 -0.344596 11.847
-0.0752544 -0.301362 9.9132
-0.0293836 -0.409849 10.1885
0.0820388 -0.33335 10.0363
-0.518743 -0.458276 10.2021
0.0469718 -0.470903 10.3781
0.086175 -0.391702 9.98702
-0.0954762 -0.435512 10.3875
0.0827361 -0.353897 9.95798
0.0730334 -0.350236 9.95729
0.0225887 -0.334075 9.88682
0.0803234 -0.339594 9.972
0.0223369 -0.331602 9.88609
0.0618007 -0.426463 11.918
0.0221155 -0.313976 9.88825
0.078261 -0.305458 9.97211
0.0841148 -0.304943 9.95249
-0.00919771 -0.301589 9.87293
0.0774166 -0.287009 9.9727
0.0181338 -0.281075 9.8715
-0.226985 -0.263357 9.64414
-0.11661 -0.549598 11.2358
-0.226481 -0.268512 9.72394
-0.0819686 -0.445477 10.639
-0.0277365 -0.415567 10.3965
0.00595109 -0.280321 9.87183
-0.0102408 -0.279572 9.8725
0.0743338 -0.388168 10.3326
0.00675428 -0.345975 9.89276
0.00878678 -0.343835 9.91442
0.00902459 -0.340531 9.91529
-0.224745 -0.267893 9.72457
-0.537676 -0.431746 11.238
-0.0193347 -0.444159 11.6923
-0.370895 -0.6649 15.3319
0.0112227 -0.326445 9.92004
-0.0568083 -0.278768 9.88156
-0.825892 -0.505397 13.375
0.0840147 -0.326257 10.036
-0.649696 -0.679073 17.0825
0.015999 -0.318129 9.89018
-0.00927545 -0.279561 9.87302
0.0102805 -0.318632 9.91693
0.0145751 -0.317232 9.88834
0.0108072 -0.316882 9.91575
-0.771379 -0.413734 12.1541
0.082193 -0.31822 10.037
-0.0983501 -0.278914 9.99336
-0.765074 -0.390494 12.0498
0.0178556 -0.309044 9.88555
0.0797976 -0.309019 10.0332
0.0825407 -0.308979 10.032
-0.0687071 -0.304796 9.93098
0.0128501 -0.281801 9.87809
-0.781294 -0.338868 11.7131
-0.00589121 -0.294471 9.87028
-0.494908 -0.499091 10.3592
-0.493168 -0.492747 10.3342
-0.460445 -0.481348 10.2972
-0.0563641 -0.422495 9.99865
-0.798925 -0.405786 11.1504
-0.0916402 -0.647048 11.2335
-0.475754 -0.47303 10.2963
-0.493416 -0.475346 10.3398
-0.389111 -1.06345 21.7373
-0.478266 -0.45806 10.3045
0.00508799 -0.391614 9.92241
-0.491823 -0.455275 10.3298
-0.0829273 -0.282383 9.92658
-0.0888758 -0.528099 10.8688
-0.775435 -0.825082 18.4949
-0.402235 -0.283313 10.3606
-0.0525667 -0.285859 9.89876
-0.057823 -0.285771 9.92177
-0.79276 -0.336303 11.0947
-0.0884265 -0.534779 11.0719
-0.857248 -1.01843 14.6047
0.240813 -0.468188 10.6088
-0.878135 -1.04981 14.8887
-0.11312 -0.532164 11.088
-0.101026 -0.284911 10.1398
-0.0187788 -0.282324 9.91432
-0.224458 -0.268351 9.72716
0.0619655 -0.450194 10.4869
-0.37332 -0.279769 10.1548
-0.671131 -0.685449 17.4308
-0.926371 -1.07724 15.2699
-0.0899847 -0.528272 11.1529
-0.0153583 -0.43177 10.4178
-0.308936 -0.524361 11.1586
-0.154704 -0.541097 11.2936
-0.173406 -0.456214 10.6502
-0.0243198 -0.28735 9.94005
0.094729 -0.411473 10.2925
-1.33085 -1.48294 33.8086
-0.930727 -1.0162 15.3034
-0.105486 -0.521197 11.2418
-0.0937661 -0.523231 11.2591
-0.313317 -0.507712 11.1465
-0.237637 -0.287251 10.3302
-0.850267 -0.501497 11.1266
-0.712152 -0.519387 11.2842
-0.201287 -0.50766 11.1917
-0.0925173 -0.288359 10.0811
0.0730929 -0.426392 10.4922
-0.841426 -0.502738 11.1595
-0.820763 -0.504558 11.1759
-0.168956 -0.512432 11.2806
-0.32392 -0.488418 11.0862
-0.174434 -0.500074 11.1937
0.0027016 -0.357363 9.91446
-0.320439 -0.484728 11.0748
-0.179658 -0.493617 11.1584
-0.0559438 -0.274481 9.86138
-0.635669 -0.482181 11.0675
0.0376072 -0.511321 11.3753
0.0839992 -0.432355 10.6394
-0.093021 -0.289376 10.0243
-0.776529 -0.494806 11.2296
-0.126922 -0.498136 11.2742
-0.0769842 -0.421753 10.5533
-0.832823 -0.479509 11.1072
-0.105411 -0.492516 11.2466
-0.715597 -0.489108 11.2266
-0.967376 -1.0214 16.3849
0.0618588 -0.406903 10.4454
0.073416 -0.408544 10.4616
-0.296095 -0.487412 11.2447
-0.621731 -0.46811 11.0718
0.0787415 -0.403234 10.4405
0.0647313 -0.390188 10.3102
-0.738568 -0.480745 11.2212
-0.604297 -0.468822 11.1037
-0.238054 -0.290072 10.3367
-0.240431 -0.290092 10.3505
-0.738763 -0.477294 11.2127
-0.308045 -0.473254 11.181
-0.195569 -0.492774 11.3834
-0.0730863 -0.41421 10.5815
-0.85223 -0.469196 11.1531
-0.607762 -0.464271 11.1075
-0.289927 -0.471519 11.19
-0.341875 -0.29039 10.3691
-0.0579052 -0.27433 9.8677
-0.131722 -0.2913 10.3823
-0.0181086 -0.277028 9.88324
-0.783362 -0.474187 11.2339
-0.732832 -0.472777 11.2202
-0.616889 -0.462383 11.1134
-0.20371 -0.482658 11.3366
-0.0756448 -0.478114 11.2917
-0.923559 -0.92513 16.0792
-0.145407 -0.463125 11.1589
-0.062727 -0.274337 9.86796
-0.753445 -0.68789 13.61
-0.641187 -0.455431 11.1179
0.0840479 -0.409517 10.6302
-0.85614 -0.454378 11.1285
-0.169 -0.47397 11.3647
0.0781804 -0.405841 10.6093
-0.349307 -0.292314 10.562
-0.655984 -0.445343 11.087
-0.795229 -0.671335 13.6889
0.055768 -0.471617 11.4084
-0.57902 -0.44235 11.0825
-0.570236 -0.446823 11.1351
0.061281 -0.470706 11.4316
0.079322 -0.373538 10.2939
-0.335186 -0.291891 10.3955
-0.70747 -0.446519 11.1882
-0.909238 -0.840431 15.9488
-0.771317 -0.443486 11.2128
-0.110791 -0.432192 11.0905
0.0579578 -0.440743 11.2023
-0.629983 -0.432014 11.1041
-0.0838677 -0.433962 11.1776
-0.0332658 -0.273382 9.84301
0.00159896 -0.33538 9.91403
-0.0905171 -0.277183 9.93039
-0.824181 -0.85012 16.8113
-0.179882 -0.635465 13.9491
-0.16641 -0.658043 14.2527
-0.00685195 -0.469428 11.725
-0.103293 -0.292327 10.2805
-0.641795 -0.426361 11.161
-0.100082 -0.293082 10.1657
0.0718152 -0.374218 10.4706
-0.0908207 -0.277098 9.93515
-0.753844 -0.433489 11.2921
-0.186817 -0.629361 14.0405
-0.148425 -0.602075 13.6615
-0.0684942 -0.274136 9.8767
-0.0860055 -0.417955 11.1322
-0.762613 -0.428812 11.3027
-0.611994 -0.416927 11.1356
-0.718642 -0.682334 15.2104
-0.107566 -0.404463 11.0412
-1.02597 -1.33961 25.4448
-0.922082 -1.23725 23.8724
-0.0506001 -0.424319 11.3856
-0.0724592 -0.293507 9.92457
0.00148474 -0.328613 9.91373
-0.230331 -0.27362 9.9164
-0.0414415 -0.278229 9.91108
-0.663037 -0.404401 11.0941
-0.033337 -0.683524 15.5082
-0.707884 -0.607265 14.3925
-1.19496 -1.22094 24.2378
-0.0648444 -0.29406 9.99861
-0.79542 -0.403097 11.1478
-0.715381 -0.600498 14.395
-0.802037 -0.711522 16.216
-0.404822 -0.685202 15.7992
-0.567253 -2.5975 47.2186
-0.676331 -0.307454 11.1813
-0.172248 -0.31119 11.179
-0.341366 -0.309858 11.0278
-0.874924 -0.406156 11.2837
-0.781629 -0.4058 11.2815
-0.888098 -0.401085 11.2892
0.0335315 -0.456248 12.3254
-0.494214 -0.960113 21.7016
-0.17643 -0.825426 19.2237
-0.673009 -0.385793 11.1117
-0.775441 -0.323352 11.5511
-0.884331 -0.722791 17.499
-0.0558685 -0.278153 9.91809
-0.846113 -0.382194 11.0814
-0.777728 -0.384714 11.1338
-0.348579 -0.318115 11.1013
-1.3404 -0.672422 16.9152
-0.752508 -0.32294 11.3365
-0.0707988 -0.390688 11.3383
-0.050399 -0.304124 10.1954
-0.161087 -0.322996 11.2706
-0.777551 -0.380074 11.1411
0.0877932 -0.336254 10.2835
-0.39615 -0.397438 14.6925
-0.66893 -0.374349 11.0787
-0.717864 -0.39133 11.4991
-1.22966 -1.01471 25.0614
-0.0274216 -0.277677 9.89308
-0.777175 -0.330296 11.2851
-0.894814 -0.37888 11.2767
-0.0627109 -0.38691 11.504
-0.0745194 -0.301913 9.91685
-0.969963 -0.530992 14.8602
-0.0746146 -0.278897 9.92836
-0.799229 -0.370496 11.2751
-0.763246 -0.370451 11.2762
-0.728869 -0.537498 15.4108
-0.0233467 -0.281543 9.90996
-0.13827 -0.48557 14.3328
-0.718531 -0.439943 13.2653
-0.660125 -0.448141 13.4867
-0.615362 -0.43533 13.1499
-0.332901 -0.490454 14.6311
-0.112413 -0.336791 11.4101
-0.826566 -0.330777 11.0626
-0.145274 -0.473102 14.3667
-0.845007 -0.352978 11.0785
